# .PCD v0.7 - Point Cloud Data file format
VERSION 0.7
FIELDS x y z intensity
SIZE 4 4 4 4
TYPE F F F F
COUNT 1 1 1 1
WIDTH 1246
HEIGHT 1
VIEWPOINT 0 0 0 1 0 0 0
POINTS 1246
DATA ascii
-29.260441 -13.042383 -0.05461894 24
-29.263412 -12.627992 -0.10211338 23
-29.314629 -12.087387 -0.11710309 23
-29.36792 -11.955235 -0.05300837 24
-29.446606 -11.403813 -0.13838606 24
-29.439722 -10.964538 -0.13372011 24
-29.275383 -10.726946 -0.13629615 21
-29.270403 -10.174994 -0.15400603 21
-29.209131 -8.8808203 -0.22483478 22
-29.205374 -8.397747 -0.26004991 22
-29.280615 -6.4303331 -0.02721414 24
-29.441271 29.86409 -0.17733362 24
-29.349146 30.068653 -0.14985035 24
-29.545456 50.486885 -0.14834811 25
-29.398426 -17.12458 0.32153851 22
-29.26914 -15.786454 0.36674961 24
-29.223324 -14.833596 0.18276194 24
-29.259287 -14.212876 0.21959466 23.333334
-29.323669 -13.780169 0.22250597 23.5625
-29.395121 -13.395538 0.15453556 23.454546
-29.349447 -13.009493 0.2783173 22.888889
-29.274151 -12.670875 0.15101577 24
-29.348951 -12.216756 0.18703684 23.272728
-29.388029 -11.831739 0.21337584 24
-29.43479 -11.346476 0.10952846 23
-29.41511 -10.97539 0.22113863 23
-29.298491 -10.480746 0.25656942 23.6
-29.278233 -10.226881 0.21319269 23.200001
-29.303694 -9.9841385 0.25753239 23.333334
-29.263622 -9.4586468 0.23914129 24
-29.226572 -8.9263153 0.22888891 24
-29.240456 -8.631959 0.15495078 23.571428
-29.253998 -8.2893381 0.19387859 24
-29.241926 -7.787878 0.3578735 24
-29.237843 -7.3906527 0.32749099 24
-29.243958 -7.0042667 0.29789692 24
-29.246822 -6.6713028 0.21137567 23
-29.544235 15.758282 0.33545384 26
-29.451323 29.936237 0.12781145 24
-29.505501 50.200249 0.14892955 25
-29.470722 -17.005911 0.70349598 24
-29.229956 -15.914357 0.58691937 24.5
-29.288794 -14.239623 0.40149102 24
-29.259766 -13.830377 0.42195973 22.5
-29.313004 -12.516448 0.57237571 23
-29.321272 -12.205931 0.56771439 24
-29.209444 -11.729945 0.40898177 22
-29.27302 -11.319398 0.57154649 23.333334
-29.286644 -10.915529 0.43664041 22
-29.429543 -10.729678 0.72643286 24
-29.261864 -10.325165 0.54622632 24
-29.376099 14.952489 0.76447749 24
-29.356247 29.799299 0.74868488 24.5
-29.519926 50.259624 0.55077368 24
-29.445194 -16.977667 0.99461859 24.76923
-29.229942 -16.165985 0.97087908 25
-29.268145 -15.818727 0.92184401 25
-29.243845 7.9939713 1.1920787 26
-29.255201 25.529665 1.1650269 25
-29.334709 26.133242 1.1159743 25
-29.582603 49.848339 1.1799966 27.041
-29.484795 50.533718 0.92633396 26
-29.44087 -16.946301 1.4404044 24.85
-29.236954 -16.091064 1.4915521 26
-29.274717 -15.824364 1.4747429 25.5
-29.410019 7.785264 1.2520276 26.508751
-29.440468 8.0724249 1.2742969 26.799999
-29.293299 26.168409 1.2682939 25
-29.487917 -16.943895 1.6814417 25.428572
-29.269024 -15.843004 1.619777 26
-29.315628 7.7215204 1.926957 28.021999
-29.408278 8.1261272 1.9104704 27.666666
-29.432732 10.706351 1.9258596 27.1705
-29.402033 26.399591 1.8411944 25
-29.497972 -16.921595 2.2521565 25.75
-29.52158 -16.746204 2.3047817 26
-29.493721 8.1849937 2.2247505 26.5
-29.553688 20.880808 2.0605628 26
-29.402704 -16.916824 2.6177058 23
-29.324566 -16.751112 2.6209509 23
-29.201748 -15.798334 2.7344844 23
-29.483206 7.9762001 2.5762017 27.085251
-29.430693 8.1154165 2.6034052 28.130112
-29.298182 10.266554 2.6276748 27.1675
-29.407648 10.993459 2.631053 27
-29.424858 -16.864271 3.1243134 26.667749
-29.354116 -16.708248 3.0064304 25.857143
-29.215431 -16.185137 2.9301372 27
-29.249676 -15.738925 2.9772499 27.004126
-29.400536 8.1588764 3.0208092 27.2915
-29.393129 11.012746 2.8653491 26.8673
-29.48209 -16.883747 3.286922 27
-29.53602 7.4793215 3.4485459 27.574501
-29.438984 8.1485243 3.3796437 28.6
-29.499249 10.220439 3.396697 28.166
-29.492649 11.052833 3.4947586 28
-29.224293 21.42128 3.4883049 28.160999
-29.298851 -16.840076 3.6095326 24
-29.357702 -16.723797 3.8000541 28
-29.28598 -15.631998 3.6596534 28
-29.399639 8.0776081 3.7762606 27.902201
-29.312748 10.222117 3.7311299 27.172001
-29.450144 11.005697 3.7610884 27.516455
-29.329266 21.057289 3.7295909 29.1745
-29.379421 -16.840101 4.1510725 26.481981
-29.352842 -16.6877 4.2416682 26.858929
-29.506958 7.5347366 4.2574244 28.08
-29.373569 8.1827517 4.2394018 29
-29.529854 11.056728 4.2636595 27.799999
-29.521223 11.217174 4.3173661 27.085501
-29.442471 -16.848122 4.4259934 26.431715
-29.330694 -16.745565 4.7008066 26.4
-29.267221 -15.575345 4.5513196 29
-29.507372 7.7147098 4.4016528 30.056999
-29.369967 8.1984768 4.5888524 27.634302
-29.378748 8.4358931 4.5115027 27
-29.524141 11.079403 4.5550547 28.666666
-29.495173 11.206213 4.7912455 29
-29.330503 -16.840439 4.8897724 25.5
-29.434311 -16.760679 4.9204235 26.6
-29.233372 -15.684608 4.9773273 29
-29.396229 8.167448 4.8510528 28.166666
-29.557749 10.704144 4.9501424 28
-29.472923 11.101244 5.0963478 28.834
-29.507961 13.163299 5.1820536 29.164499
-29.348051 -16.78322 5.3430262 28
-29.210417 -15.613889 5.4630761 28.011999
-29.361834 8.2105207 5.3139038 28.309999
-29.3745 8.477973 5.5045061 28
-29.474844 11.127151 5.4143171 28.043751
-29.410254 13.102327 5.4168816 30.167999
-29.502199 13.476192 5.2263079 28.0835
-29.336624 21.44763 5.240252 30.0035
-29.43371 -16.662445 5.8497863 30.039499
-29.260134 8.1957426 5.9341898 29.085751
-29.548813 13.059574 5.7734909 29.084
-29.231529 -15.439787 6.33846 30
-29.424444 8.2245188 6.2145309 28.675943
-29.427622 8.5564299 6.2552829 26
-29.577572 9.3960924 6.3968554 27.083
-29.459843 10.364161 6.3967376 29.0865
-29.485262 10.628769 6.3932481 29
-29.5224 11.089541 6.2286849 29.5
-29.467237 11.297152 6.2811518 29.155355
-29.493393 11.973511 6.2996898 29.62525
-29.494371 12.22854 6.3088007 30.164
-29.521975 12.758547 6.3819199 30.1635
-29.504887 13.034286 6.3268785 29.084
-29.414192 13.441461 6.3350859 28.851873
-29.426863 13.947647 6.3461037 30.16
-29.556078 17.003654 6.1884999 30.161751
-29.543102 17.629908 6.2699971 30.161251
-29.593369 19.125204 6.2605629 28.1675
-29.360338 6.3766017 6.7330704 28.175501
-29.398645 6.6556416 6.6536074 28.658072
-29.430128 7.0423093 6.6095538 28.866497
-29.42708 7.4042573 6.6084394 29.292749
-29.428499 7.8433514 6.6190853 28.929785
-29.445814 8.2329912 6.569324 29.346285
-29.439117 8.57304 6.586586 29.269751
-29.470491 9.0224524 6.5361543 29.702801
-29.431139 9.4192209 6.5936456 29.903
-29.405033 9.9568853 6.6272058 29.171001
-29.44556 10.16453 6.5151377 29.141832
-29.402115 10.696787 6.4736724 29.694666
-29.477732 11.045156 6.5172567 30
-29.328083 11.237926 6.5071826 29.416834
-29.469803 11.851241 6.4759779 29.805166
-29.468752 12.382153 6.5112462 29.804667
-29.56955 12.569726 6.4674473 27.0825
-29.499434 12.935637 6.4102459 29.082001
-29.506756 13.274103 6.446147 30.163
-29.477215 14.521472 6.4391532 30.1595
-29.553265 21.082279 6.7577162 30.158501
-29.381433 4.3613324 7.141046 26
-29.29908 4.625484 7.1150331 26
-29.392021 5.88204 6.8999124 30.0825
-29.42605 6.2777634 6.8755727 30.082001
-29.345476 6.6745658 6.914855 29.143835
-29.378326 7.059689 6.9671259 29.627998
-29.373732 7.5284681 7.0284324 29.782831
-29.254639 7.8766003 7.010561 30.0865
-29.300987 8.2738695 7.0735807 29.782166
-29.307018 9.1676273 7.0533667 30.091499
-29.390142 9.8943253 7.0991859 29.868
-29.360851 10.16748 7.1039062 30.022625
-29.389217 10.627814 7.0885525 29.852398
-29.423594 10.990101 7.0940766 30.012787
-29.413055 11.401307 7.0588608 30.017801
-29.436628 11.738469 7.0987926 30.033398
-29.480793 13.23929 6.9272718 30.16625
-29.471027 13.768804 7.0131283 30.126251
-29.484941 14.318233 7.0551014 30.125751
-29.528013 16.704533 6.9465742 30.16
-29.477621 -7.0829315 7.5871058 28.099001
-29.203312 -0.68409175 7.5120063 26.666666
-29.204798 0.084764786 7.5774841 29.093
-29.274103 0.61385673 7.4785476 28.091499
-29.246819 1.1096379 7.4680548 29.091999
-29.246918 1.8935455 7.5424724 30.1
-29.25049 2.3155379 7.4999928 30.099501
-29.325104 2.5976303 7.5612664 28.0935
-29.25926 3.1580911 7.4209771 30.098499
-29.364695 3.4575253 7.4887414 27.09
-29.394564 4.2198796 7.4232497 27.0895
-29.405184 4.7376323 7.4783173 29.087999
-29.285173 5.5520325 7.4274969 27.588001
-29.362331 5.8113675 7.3667903 27.784166
-29.329044 6.3290167 7.4025865 28.4795
-29.329096 6.5712452 7.3850298 29.112499
-29.29493 7.0283179 7.4350314 29.481165
-29.318197 7.4345269 7.4170175 29.786499
-29.288158 7.7021055 7.4251318 29.174
-29.327139 8.4871416 7.3779125 29.58675
-29.263351 8.8149748 7.584012 29.174
-29.351883 9.3863745 7.432723 30.088501
-29.383022 9.7855959 7.42171 28.4475
-29.340935 10.254642 7.3547325 29.630749
-29.358238 10.818558 7.3062921 29.630249
-29.419933 11.305179 7.2173243 30
-29.486292 12.611583 7.3806872 30.165001
-29.554693 18.199755 7.562727 30.162001
-29.458735 -13.00569 7.9139161 28.113998
-29.200829 -1.7157978 7.9518452 29
-29.209139 -1.4714673 7.7416067 27.666666
-29.20031 -1.0239674 7.8819942 29
-29.205301 -0.42846555 7.640656 29.0935
-29.209082 -0.28559631 7.7409339 29.093
-29.214314 0.19237359 7.7256188 30.101999
-29.213749 0.68991929 7.7336125 30.1015
-29.243408 1.0194336 7.7563496 29.550499
-29.236551 1.4428366 7.8756313 29
-29.238226 1.7475654 7.6423426 28.595501
-29.218943 2.5012584 7.8015461 29.178499
-29.242741 3.3975887 7.8614182 28.814835
-29.245071 3.6892772 7.6466556 30.095501
-29.246864 4.9963431 7.8243799 29.177
-29.295321 6.2348003 7.80092 30.088499
-29.291195 6.6180348 7.7539477 30.036402
-29.446741 7.1661577 7.6422801 30
-29.488708 7.7751856 7.6935544 30
-29.454298 9.5154543 7.8253474 28.083
-29.303211 9.6474867 7.6155691 29.1735
-29.528631 15.080837 7.6891866 30.163
-29.562979 18.122576 7.7430816 30.162251
-29.584562 -15.897656 8.3741894 28
-29.304285 -15.306771 8.3706455 29.047501
-29.317236 -7.1388435 8.2579384 30.005501
-29.389469 -1.1521749 8.0319242 30
-29.226213 3.2711709 8.0042334 29.177
-29.27281 3.8684797 8.3578291 30.09775
-29.285662 5.944931 8.1725597 30.095501
-29.312244 6.1593566 8.2459459 30.094999
-29.441473 6.5758543 8.0578403 28.084999
-29.265251 6.8153887 8.1142263 30.0945
-29.371817 9.9680128 8.0345135 30.091
-29.511786 -15.660253 8.4040375 28
-29.21265 -0.047931358 8.751811 30.102249
-29.259369 2.9622736 8.5118675 30.098001
-29.419771 5.6921926 8.7790051 27.088499
-29.327436 7.0640287 8.4084616 30.091999
-29.301741 7.3592401 8.6209402 29.043751
-29.323996 -15.041408 8.9880133 30.011999
-29.313604 2.3195105 9.0243196 29.0895
-29.39723 5.5378561 9.0372505 29.089001
-29.442785 -14.91285 10.364262 29.1045
-29.268833 1.6085693 10.378789 29.09
-29.261032 3.1426423 10.208617 28.0875
-29.344667 4.9924936 10.165702 29.0865
-29.233463 6.3559999 10.396786 30.088499
-29.238188 7.6703348 10.301086 30.0875
-29.316664 -14.932241 10.476371 30.094999
-29.287388 0.86815232 10.462285 29.0905
-29.21291 3.7469862 10.615654 30.0905
-29.28801 5.149241 10.5664 29.588501
-29.442423 5.3568959 10.530268 29.089001
-29.240627 5.689044 10.872928 30.176001
-29.243557 6.4941344 10.894848 30.175501
-28.962984 12.598299 -2.647398 20.5
-28.876764 1.0112147 -2.0828457 22
-28.896338 1.3353143 -2.0996053 22
-28.921791 1.8235489 -2.1251712 22
-28.943863 2.3080487 -2.1509421 22
-29.042131 2.6150322 -2.1321957 21.5
-29.00737 2.958221 -2.1569176 21.5
-28.941164 3.2920737 -2.1779618 21.5
-29.06424 3.7920709 -2.2258205 22
-29.044571 4.2539282 -2.2506077 21
-29.043327 4.6013794 -2.2656362 22
-28.95668 5.0207896 -2.2903478 22
-28.987867 5.3034992 -2.3058026 22
-28.913086 5.6693945 -2.3323007 22
-29.05798 -3.6373799 -1.7108402 20
-28.94272 -3.0197647 -1.854968 20.333334
-29.154173 -1.7708428 -1.9588227 19
-29.136553 -0.58947325 -1.9709283 20
-28.962904 -0.18242621 -1.9905673 20
-29.104153 -2.9862599 -1.51975 20
-29.168837 -14.677007 -0.84050643 23
-29.199139 -2.9513144 -0.89312333 21
-28.984493 21.063215 -1.128051 23
-29.154142 -14.185517 -0.56574267 23
-29.125778 -5.329226 -0.41281715 22
-29.064297 -2.9290485 -0.55227739 21
-29.0966 -15.896319 -0.061816987 21
-29.111731 -14.83421 -0.15513265 24
-29.135403 -14.682402 -0.12874384 22.833334
-29.152248 -14.290367 -0.051507354 24
-29.122309 -12.712563 -0.12963709 22.333334
-29.009708 -7.393888 -0.23372926 22
-29.125624 14.527711 -0.10692885 24.5
-28.866123 29.798727 -0.30205402 24
-29.088146 -17.098835 0.33764231 22
-29.146231 -14.570376 0.180438 23.272728
-29.133898 -14.24391 0.21994992 22.9
-29.187206 -13.952026 0.070675448 22
-28.934471 -13.449652 0.25915512 23
-28.956324 -13.13279 0.22796403 23
-28.890003 -12.667339 0.1823357 22.5
-29.123413 -12.069386 0.39203575 22
-28.963514 -10.639357 0.027708029 22.5
-28.84355 -10.084076 0.38202214 22
-28.943237 -7.7802768 0.31153104 23
-29.191692 -6.741632 0.053892937 24
-29.108679 -5.0647817 0.23997529 24
-29.132839 -4.7137928 0.21087126 24
-29.178099 -4.1859236 0.16724823 24
-29.068594 14.233593 0.29097119 25
-29.04035 14.670602 0.24617475 25
-29.064335 15.143505 0.20200017 25
-28.96406 15.874073 0.28533643 26
-29.009455 16.317347 0.17891091 24
-28.970778 -17.086025 0.55392021 22
-28.945139 -16.442579 0.62270486 22
-29.044161 -16.232224 0.60027689 22.857143
-29.131313 -15.89692 0.62526745 23.25
-29.129272 -14.64379 0.49248651 22.799999
-29.158669 -14.278658 0.47878563 24
-29.157991 -13.836395 0.47475672 22
-29.159866 -12.995458 0.74036479 24
-29.111105 -12.007751 0.45194393 22
-29.16721 -11.86411 0.62429041 23
-28.822048 -11.513837 0.63105321 24
-28.867496 -11.081426 0.59646392 24
-28.886614 -10.640487 0.5619055 24
-28.864193 -9.3242016 0.46125865 24
-29.166285 50.28133 0.54342246 24
-28.858313 -17.559195 1.1132967 24
-29.001133 -16.973583 1.0178063 23.928572
-29.020485 -16.518938 1.0118413 23
-29.086063 -16.223415 1.0377357 24.490566
-29.088736 -15.893085 1.0389262 24.142857
-29.187138 -12.756115 0.95301151 25
-28.98415 26.225851 1.0712641 24.5
-29.098026 29.948503 0.8469612 25
-28.999044 -16.942883 1.4916911 24.666666
-29.016897 -16.424126 1.3389684 25.25
-29.070814 -16.226669 1.3897781 25.179487
-29.072704 -15.900234 1.3994763 24.772728
-28.898453 7.634192 1.2302583 27.031
-28.818426 26.216997 1.2458107 25
-29.057329 50.263645 1.3470352 24
-28.843889 -17.538122 1.8316957 24
-29.013874 -16.955637 1.6885574 25.428572
-28.969467 -16.421865 1.6405102 26
-29.068443 -16.224518 1.6900334 25.428572
-29.090147 -15.87747 1.6764927 26
-28.921375 9.9859037 1.8634261 27.171
-28.962006 -16.908178 2.2325511 23
-28.941566 -16.408878 2.3041165 24
-29.047071 -16.19129 2.2154007 25.696428
-29.051777 -15.870623 2.1888881 25.542856
-28.957613 10.575233 2.1105137 28.004
-28.84515 20.839825 2.1783762 25
-28.828228 -17.51544 2.5208766 25.5
-29.064478 -16.894405 2.7300999 23
-29.045643 -16.519392 2.6991019 23
-28.993849 -16.206406 2.6233678 23.310345
-29.008322 -15.855931 2.6010647 23.078947
-29.087088 10.242048 2.460732 27.1635
-28.95952 11.064688 2.6074941 27.540625
-28.913797 27.08075 2.4127343 27.061001
-29.004677 -16.882347 3.016973 26.07823
-29.03223 -16.661331 2.8377969 24.333334
-29.012459 -16.185974 2.9933577 24.916666
-29.049381 -15.804458 2.9901419 25.581144
-29.007895 -16.865242 3.423655 25.507999
-29.014734 -16.142923 3.3694777 25.6
-29.054232 -15.752979 3.4440982 24.666666
-28.9781 -16.840166 3.8679287 24
-29.03083 -16.732491 3.9024649 28
-28.994673 -16.151957 3.8926997 26.666666
-29.023878 -15.778211 3.8833151 26.401279
-29.162979 10.135388 3.6872494 27.171
-29.010197 -16.842319 4.1556635 26.183363
-29.051535 -16.656445 4.281302 27.338165
-28.975449 -16.154964 4.1852822 26.115385
-29.005926 -15.803308 4.1662202 25.777779
-28.820612 -17.342115 4.5192795 27.066999
-28.840374 -16.723028 4.5618987 26.5
-28.950716 -16.160238 4.660203 25.733334
-28.998329 -15.796135 4.6437616 25.892311
-28.847776 15.192281 4.7951026 30.047501
-28.947817 21.072817 4.4726968 29.160999
-29.02516 -16.810387 4.8895411 29
-29.021294 -16.69129 4.9814768 27
-28.938217 -16.167452 4.9688964 26.692308
-28.960247 -15.768768 4.9989018 26.180649
-29.128489 -15.572881 5.1650977 29
-29.027483 -16.685488 5.3379326 28.002701
-28.920582 -16.096975 5.3786616 26.25
-28.955364 -15.775909 5.4062667 26.218454
-29.138136 8.1232643 5.5862803 30.166
-28.882229 14.996236 5.3488545 30.059999
-28.917198 21.692755 5.2137542 30.003
-28.978498 -16.584902 5.789124 28
-28.90979 -16.089828 5.7736425 25.571428
-28.953169 -15.78837 5.7775521 26.268293
-29.10413 -15.589315 5.6830306 27
-28.938341 -16.04076 6.2806005 26.4
-28.954876 -15.751404 6.2389474 26.548388
-29.080326 -15.529245 6.2299852 28.333334
-28.906782 13.424274 6.341064 30.1625
-28.907053 -16.068104 6.5950117 27.049999
-28.934345 -15.760386 6.5983481 27.565489
-28.99341 -15.542295 6.5137358 28.403101
-28.944239 10.589364 6.4518147 30.0765
-29.13863 12.799806 6.4582105 30.073999
-28.889999 -16.056078 7.0012045 27.375
-28.925808 -15.752842 7.0424705 27.181818
-29.008451 -15.564499 6.9336472 28.819683
-29.162273 8.0581083 6.9975495 30
-28.86376 -16.077696 7.3650069 27.888889
-28.92803 -15.827581 7.3322349 27.744013
-28.991783 -15.55512 7.3408179 28.352942
-29.188816 -0.99586433 7.5710068 26.5
-29.196829 -0.40433282 7.5205965 27
-28.972925 0.5026536 7.4802966 26
-28.914707 7.8041677 7.4492083 30
-28.863104 8.2641048 7.5677342 30.0895
-29.079674 9.8809214 7.4145551 30.087
-28.85269 -16.057491 7.7387609 27.833334
-28.865534 -15.761132 7.7844391 27.304348
-28.955019 -15.559234 7.7752719 27.875
-29.028223 -11.228123 7.9868345 25
-29.025188 -10.905499 7.9209566 25
-29.012045 -9.8137159 7.9935746 27
-28.99357 -9.3679905 7.9541106 27.2589
-29.05151 -9.1790266 7.914804 27
-28.982618 -8.5838757 7.9205489 27.027874
-29.06571 -8.2176695 7.9121842 26.730106
-29.072783 -7.750906 7.8820524 27.035456
-29.084877 -7.3752942 7.8709779 26.619299
-29.099293 -6.9639988 7.8600655 26.299143
-29.097076 -6.603529 7.8465848 26.762188
-29.057447 -6.2620645 7.8392453 27.454929
-29.109644 -5.7706771 7.8356586 27.222221
-29.109583 -5.4058838 7.822474 27
-29.111801 -5.0629935 7.8475757 27.333334
-29.115011 -4.6108246 7.8197074 27.515665
-29.136925 -4.230773 7.8225565 27.666666
-29.144497 -3.8152406 7.9263425 27.773375
-29.128075 -3.4234958 7.884748 27
-29.144905 -3.0313103 7.8794928 27
-29.173428 -2.5711358 7.9134455 28.25
-29.155428 -2.1956649 7.8639059 28.030416
-29.155581 -1.8856903 7.8730578 28.364166
-29.167389 -1.4615935 7.857769 28.637197
-29.168203 -1.0245832 7.8134136 28.6371
-29.154892 -0.76332474 7.7071462 30.091
-29.115841 -0.35701329 7.6246481 30.0905
-29.144318 0.095103927 7.7259026 29.733833
-29.173382 0.6755681 7.8717852 29.775249
-29.173729 0.98940861 7.8182125 28.907375
-29.149595 1.3466859 7.9940071 30.179501
-29.185011 2.3191986 7.7494922 30.097
-29.179628 2.5322263 7.9286075 29.177999
-29.195177 2.8649213 7.8870211 29.177999
-29.185682 3.6704617 7.8912249 29.1775
-28.924984 7.0952597 7.6346126 30
-29.138718 9.8985329 7.6036353 29.173
-29.177629 -16.505648 8.3340454 30.0665
-28.851032 -16.038336 8.1107845 27.5
-28.881298 -15.752675 8.1910973 27.807692
-28.941936 -15.420716 8.3053513 27.631538
-28.913328 -15.122654 8.2711153 27.057251
-28.963423 -14.638853 8.2225189 27.0555
-28.973053 -14.162684 8.1695032 26.276875
-28.958029 -13.773782 8.1396275 26
-28.964174 -13.403068 8.2282486 26.033667
-28.953381 -12.975392 8.2620144 27.402666
-28.955723 -12.539023 8.353919 27.550333
-28.95532 -12.241295 8.2241182 27.186716
-28.983683 -11.826785 8.259551 27.660101
-28.989069 -11.440344 8.2528305 27.822443
-29.00124 -11.013747 8.1710491 27.674873
-28.99021 -10.63224 8.1873245 27.733335
-28.981096 -10.155779 8.0923557 27.486927
-28.891745 -9.0330229 8.1477184 28.526058
-28.986776 -8.5327559 8.1067276 28.202715
-29.034119 -8.1702127 8.1366138 28.667063
-29.034008 -7.8040428 8.1615343 28.525875
-29.046774 -7.4229941 8.1608067 28.675417
-29.037411 -6.9887514 8.0826759 29.181833
-29.106833 -6.5984025 8.0911493 29
-29.079165 -6.1983428 8.124836 29.2013
-29.105804 -5.8450394 8.132987 29.000334
-29.10161 -5.3880935 8.0612335 28.365499
-29.104019 -4.9639368 8.0808048 29.334333
-29.08049 -4.6125965 8.1205893 29.334833
-29.013985 -4.1677203 8.2933884 29.501751
-29.089128 -3.6409023 8.0557775 29.000999
-29.018232 -3.4313102 8.270216 30
-29.02627 -3.0477345 8.3048687 30.000834
-29.097467 -2.5637856 8.1722383 29.524376
-29.078135 -2.1951234 8.2501097 30
-29.080975 -1.8656896 8.2149706 29.750624
-29.075371 -1.3566713 8.2427206 30.0005
-29.120564 -0.99685848 8.1621208 29.726501
-29.087833 -0.61893409 8.1822557 30
-29.130472 -0.19644809 8.002203 29.179001
-29.07819 0.055828504 8.1018209 30.179501
-29.036631 0.58631659 8.1592989 30.134251
-29.131319 0.96696037 8.238266 30.152
-29.127729 1.3810537 8.2385969 30.178499
-29.115776 1.8246126 8.1787281 30.177999
-29.124567 2.2511082 8.1268387 30.1775
-29.114578 2.5118308 8.2467184 30.1775
-29.116922 3.2060974 8.0266819 30.176001
-29.12805 3.697798 8.0253143 30.175501
-29.13633 4.2461314 8.0450964 30.174999
-29.157932 4.7363739 8.0514612 30.1745
-29.139774 6.1003003 8.3946161 30.093
-28.851847 7.8661623 8.0028906 30.093
-28.853279 -15.748081 8.4697437 28.75
-28.880974 -15.446565 8.5177307 28.333334
-28.938007 -14.961634 8.5693655 28.302
-28.919893 -14.627925 8.5975666 28.552248
-28.932796 -14.179845 8.5630121 28.720163
-28.923288 -13.864822 8.5645256 29.00275
-28.957405 -13.428637 8.509594 27.915857
-28.945927 -13.058063 8.485364 27.913437
-28.900692 -12.626856 8.6133261 29.373999
-28.944675 -12.165445 8.5531301 28.5875
-28.944754 -11.913301 8.5746832 28.244299
-28.990963 -11.366678 8.6210918 28.535751
-28.925468 -11.012651 8.7277164 30
-28.913439 -10.628894 8.5744076 30.0035
-28.921871 -10.256337 8.6153717 30.002335
-28.905481 -9.7342806 8.5021276 30.004333
-28.933716 -9.3108654 8.5840578 30
-28.891172 -9.0039406 8.5163345 30.001999
-28.983549 -8.5827684 8.4925289 29.621099
-28.980625 -8.2165203 8.6353846 29.517418
-28.982828 -7.76194 8.6099787 30
-28.99077 -7.4893436 8.5936069 30
-29.006775 -7.0210252 8.5674868 30
-29.013432 -6.554441 8.5406818 30
-29.020157 -6.2866521 8.5267725 30
-29.033558 -5.847856 8.5719233 30.032333
-29.038265 -5.3323994 8.4803791 30
-29.046942 -4.9788561 8.4654036 30
-29.046171 -4.7980142 8.4568224 30
-29.119604 -4.0625882 8.7612295 28.092501
-29.003979 -3.5848329 8.4073629 30.003
-29.107662 -1.9879572 8.796937 30.101999
-29.18401 -0.1275775 8.6495514 30.102501
-29.161747 0.022754353 8.6397371 29.178499
-29.18355 0.97244471 8.6366491 29.177999
-28.8276 -14.62396 9.079978 30
-28.849916 -14.179804 9.0344334 30
-28.841162 -13.760899 8.9267044 30.005749
-28.88155 -13.342766 8.9495192 30
-28.962294 -13.040076 8.9434795 30.007166
-28.892635 -12.581036 8.8722544 30
-28.899069 -12.214856 8.836586 30
-28.902109 -11.924099 8.8085651 30
-28.912468 -11.369632 8.9027405 29.507
-28.913467 -10.997624 9.0556231 30.035833
-28.997793 -9.2243252 9.0368214 29.101
-29.029327 -8.934701 8.9243784 27.598
-29.03124 -7.7666941 9.1258507 27.699333
-29.060383 -6.1875768 8.9674168 28.273937
-29.09218 -4.6807647 9.189395 28
-29.112608 -4.0183339 9.1093712 28
-29.175508 -0.20970926 8.9738083 28
-28.840595 -16.027617 9.4993553 29
-28.927219 -15.816496 9.3940792 28.583334
-29.159922 -15.592072 9.5971785 29
-28.933575 -12.265517 9.2505341 28.101
-28.972073 -10.903653 9.2329617 29
-28.966789 -10.777318 9.2079544 29
-28.968241 -9.2112141 9.2725677 28
-29.023558 -7.7713404 9.2643738 28.182501
-29.039255 -7.5781341 9.3565321 28
-29.030693 -6.3188353 9.3918753 28
-28.995192 -4.8747945 9.2360554 30.002501
-29.041006 -4.1341257 9.4293928 30.05475
-29.016876 -3.9392238 9.4057884 30.0035
-29.03418 -3.38802 9.4701405 30.002501
-29.021128 -3.097693 9.2371607 30.001499
-29.063652 -1.9308413 9.3587885 30.002001
-29.144806 -1.5044904 9.4242773 29.092501
-29.143805 1.2439009 9.5402479 30.178499
-29.167723 2.7499967 9.356679 30.178499
-28.88508 -15.88658 9.6123762 29.5
-28.906885 -13.307294 9.8188229 28.880697
-28.906736 -13.195238 9.8728123 28
-28.932421 -12.493734 9.7715893 28.5515
-28.894506 -12.265128 9.7346563 29.707499
-28.948483 -6.2407894 9.6242504 30.004
-29.085545 -4.0501003 9.7511225 29.098249
-29.030806 -3.9794605 9.6531439 30.002501
-29.01524 -3.2942834 9.6288691 30.002001
-28.883074 -14.950452 10.383841 30
-28.909565 -13.778584 10.337409 29.60825
-28.857389 -12.63054 10.265649 29.069334
-28.866713 -10.055735 10.386129 30.111752
-29.01643 -9.7353678 10.28389 29.440666
-28.979986 -9.5777731 10.346286 30.11125
-28.999773 -8.8417263 10.363153 28.098
-29.009682 -8.0472984 10.290114 28.0975
-28.996292 -7.8536444 10.357539 30
-29.034491 -7.0496707 10.264771 29.031668
-29.033421 -6.7557764 10.161658 30
-29.071926 -5.1880641 10.382764 29.0965
-29.073063 -4.6372604 10.27427 28.594
-29.020018 -4.2618084 10.36383 30.002001
-29.059725 -3.8424227 10.250126 29.061499
-29.097189 -3.3719726 10.268546 28.091999
-29.188175 -1.2693911 10.345667 29.0905
-29.173731 -0.088737465 10.188745 28.0895
-29.149963 2.4903824 10.39527 30.0895
-29.185225 5.0271244 10.155209 30.0875
-29.041563 -14.8925 10.402631 30
-28.885435 -14.486605 10.459151 29.102749
-28.905682 -13.938903 10.736233 30.105999
-28.803656 -13.273695 10.556993 30.104
-28.92741 -13.127409 10.571634 27.597752
-28.904779 -12.720167 10.747559 29.5525
-28.882475 -12.196877 10.515774 29.05175
-28.87064 -11.817349 10.727685 30.042
-28.929729 -11.258799 10.733711 30.060249
-28.868742 -10.738516 10.45188 30
-28.895521 -10.199266 10.451043 30.112499
-28.936329 -9.8523722 10.638212 30.10825
-28.951769 -9.3551464 10.591006 29.578499
-28.969284 -8.9971514 10.607632 29.419598
-29.02129 -8.6060953 10.598629 29.419901
-28.988945 -8.1380253 10.527226 29.275625
-28.953657 -7.6635528 10.679497 29.0485
-28.903002 -7.5342159 10.694757 29.031668
-29.059719 -7.0364165 10.466635 28.5975
-28.93948 -6.5878425 10.568977 30.0035
-29.044306 -6.1595864 10.525782 29.047874
-29.020227 -5.9121876 10.579581 28.570999
-29.055492 -5.2289672 10.596554 29.093
-29.109858 -4.9199419 10.490526 28.094
-29.013109 -4.4838009 10.60082 29.046249
-28.834137 -4.0021315 10.729515 30.002001
-29.051296 -3.768333 10.402155 29.091999
-29.060217 -3.3061299 10.663553 29.256001
-29.047392 -2.532156 10.53618 30.092499
-29.020824 -2.3105052 10.701936 30.179501
-29.033154 -1.7010626 10.721266 30.0005
-29.015614 -1.3314774 10.722625 29.592251
-29.05394 -0.93890691 10.714224 30
-29.062248 -0.66436124 10.792961 30
-29.112127 -0.094034106 10.617772 29.58975
-29.131487 1.2218097 10.530873 30.0905
-29.129564 1.8567388 10.458303 30.09
-29.099651 2.4473684 10.709421 30.091499
-29.134649 3.9817393 10.558923 30.1765
-28.94537 5.1570711 10.679921 30.089001
-29.098133 5.7856126 10.798406 30.0835
-28.813932 -12.860304 10.891128 30.0075
-28.877605 -12.068139 10.849589 30.007
-29.06921 -7.8905573 10.999437 30.004499
-29.003313 -6.290031 10.902579 30.0035
-29.076851 -5.9727554 10.83436 30.001499
-29.199942 6.0443292 10.800711 30.175501
-28.633373 12.800817 -2.6652203 21
-28.714956 -0.27655289 -2.0105426 22
-28.757799 0.20471892 -2.0348828 22
-28.77137 0.63118237 -2.0502436 21
-28.581535 0.95471883 -2.0614903 20
-28.422592 1.3262687 -2.0826805 20
-28.520752 2.756043 -2.2224929 19
-28.448572 3.1253669 -2.2151823 19.5
-28.663263 3.6173487 -2.1644871 21
-28.542021 -2.95189 -1.8134377 20
-28.723503 -2.4229496 -1.8432876 20
-28.570288 -2.1869934 -1.9090779 21
-28.61747 -1.7859385 -1.9194736 19.5
-28.570164 -1.3839146 -1.9527687 22
-28.639477 -0.90952283 -1.9777483 22
-28.674713 -0.59802032 -1.993481 22
-28.572083 -6.2153687 -0.92611986 23
-28.673149 -4.689333 -0.63866693 21
-28.54459 50.493523 -0.43630487 25
-28.555164 -15.685479 -0.024657117 24
-28.79826 -13.147755 -0.15981592 23
-28.781092 -2.8070061 -0.19191562 24
-28.696575 15.082851 -0.11135606 23.5
-28.697769 15.258904 -0.04370679 23.5
-28.737669 15.815125 -0.046463583 23.5
-28.700127 16.370165 -0.029449647 24
-28.642084 30.082783 -0.1894111 24
-28.421814 50.351707 -0.069995418 25
-28.46603 50.492798 -0.24639603 25
-28.576773 -17.016428 0.36559594 24
-28.688061 -16.491068 0.042128265 23
-28.538536 -15.654869 0.27636477 24
-28.688025 15.011496 0.16520315 24
-28.689144 15.418907 0.16543779 24
-28.758381 29.913216 0.15460902 24
-28.525127 -17.60906 0.58404565 23
-28.552176 -17.021744 0.5855903 23
-28.610048 -16.49596 0.46775106 22.5
-28.462538 -15.703606 0.67624587 24
-28.79373 -11.96251 0.66671807 24
-28.564028 9.8688564 0.70115453 25.5
-28.585266 10.305247 0.69879323 25.25
-28.622242 10.674555 0.69815421 25
-28.641562 15.010502 0.57467335 25
-28.634912 15.622725 0.58548409 25
-28.584297 50.319889 0.5344919 25
-28.571619 -16.969406 1.0148193 24
-28.402489 -16.483027 1.0363644 24
-28.553005 7.9863238 1.1820478 26
-28.64912 15.490906 0.98599041 25
-28.53392 26.187408 1.1490595 24.333334
-28.461927 26.868435 0.97621626 24
-28.446918 29.339928 1.0238389 25
-28.64069 49.88459 1.1030577 27.040501
-28.627062 -17.542444 1.3388879 24
-28.470198 -16.92676 1.481043 25.5
-28.512079 -16.700466 1.2646143 24
-28.526798 21.227509 1.4586537 25
-28.641636 23.661446 1.2751348 25
-28.477938 26.113371 1.2230232 25
-28.511047 29.480288 1.2960688 25
-28.556713 -17.559044 1.8389405 24.333334
-28.553614 -16.944841 1.7169741 25.166666
-28.504091 -16.566648 1.735525 24.111111
-28.58366 10.665117 1.8643342 27.17
-28.665928 11.032637 1.8611845 27
-28.73073 26.244642 1.7096338 26
-28.524147 -17.555864 2.3298266 26
-28.490265 -16.874874 2.2877331 24.666666
-28.510233 -16.59066 2.2866964 25.5
-28.49254 -16.389441 2.3277123 25
-28.479219 10.727156 2.0714958 28.0035
-28.491968 20.923746 2.0470858 26
-28.578928 -17.527826 2.5708759 26
-28.633856 -16.956696 2.6022091 23
-28.480824 -16.591356 2.4527256 26
-28.455814 11.121932 2.5083675 27.164499
-28.762163 11.240572 2.6308134 28
-28.697416 15.450782 2.7840829 27.1605
-28.594442 -17.44998 3.1141434 25
-28.547916 -16.889376 3.0514779 26.156384
-28.509638 -16.653587 2.9757004 25.4
-28.630671 -16.345282 2.9744787 25.259874
-28.654459 11.289637 2.9774854 26
-28.65308 15.445086 2.8788795 27.1635
-28.712889 -16.838285 3.5813997 24
-28.416389 -16.597242 3.5500476 27
-28.509871 -16.356089 3.5178797 27
-28.693939 21.582808 3.4676127 28.1605
-28.731569 27.046984 3.4699168 28.061001
-28.583549 -17.416317 3.7946298 26.008333
-28.59416 -16.833698 3.9074247 27.5
-28.523565 -16.689445 3.8023179 27.25
-28.559732 -16.342205 3.6938403 25.666666
-28.40432 20.748665 3.620034 29.174
-28.452042 21.383709 3.788866 27.077002
-28.642662 -16.852961 4.1368656 26.562889
-28.516802 -16.677681 4.3035998 26.573929
-28.563076 -16.303593 4.2683377 26.833334
-28.591772 21.687078 4.2880592 27.161499
-28.578203 -17.393282 4.5234385 27.01
-28.727713 -16.915148 4.5535722 27.01
-28.530455 -16.674143 4.552897 27.25
-28.581856 -16.301886 4.6568241 28
-28.541945 15.666493 4.794239 29.1625
-28.491659 20.759501 4.5874939 30.0975
-28.665483 21.49514 4.4837189 29.065001
-28.650471 21.641651 4.5865936 29.136499
-28.625937 -17.414751 4.8699899 28
-28.567938 -16.820547 4.9389639 28.501751
-28.633253 -16.751675 4.9378991 27.818182
-28.672909 -16.133064 5.0893521 26.168083
-28.659643 -15.864189 5.0215187 25.82353
-28.645077 21.716415 4.9044313 30.011499
-28.552237 -16.767649 5.2647228 28.013498
-28.647345 -16.191189 5.420445 26.40625
-28.67198 -15.875707 5.5394535 28
-28.707731 13.007483 5.3885813 30.120499
-28.417067 13.342611 5.5553956 30.164499
-28.650232 -16.145479 5.7740016 26.444445
-28.641716 13.110133 5.6319108 27.083
-28.593681 13.410391 5.7673984 29.0865
-28.423662 -16.56509 6.2388701 29
-28.647486 -16.156044 6.2390933 27
-28.76976 -15.750974 6.3210835 29
-28.511669 13.71356 6.0653567 29.083
-28.629087 -16.450457 6.6244617 27.333334
-28.654263 -16.186642 6.612781 27.785715
-28.786041 -15.700223 6.4337835 29
-28.646288 8.2343073 6.4851108 30.17
-28.622196 11.19773 6.4478073 30.1675
-28.500959 13.411347 6.4548187 30.164
-28.600401 -16.225655 6.9950542 28.101452
-28.444801 -16.459051 7.5519171 30.0585
-28.640594 -16.180426 7.3452501 28.140932
-28.774565 -15.997066 7.3918591 27
-28.684286 7.8968825 7.3755903 30
-28.771227 10.163168 7.4422317 30.084499
-28.666544 -16.104237 7.7983885 27.2103
-28.748692 -15.935917 7.909739 28
-28.714659 -9.6438761 7.9243307 26
-28.499327 -9.5187645 7.9881377 27.099501
-28.771423 0.35160661 7.6642032 30.1015
-28.777069 6.0161576 7.977057 30.176001
-28.615196 -16.066782 8.1768446 28.066668
-28.723923 -15.795687 8.3452053 26.875
-28.794571 -15.389201 8.243824 25.75
-28.671026 -10.62158 8.2701931 30.080999
-28.681133 -10.10397 8.1273823 30.0805
-28.464579 -9.6785259 8.1660404 29.004499
-28.485823 -9.3991528 8.0904055 28.857374
-28.764767 -9.1501141 8.0947018 29.1105
-28.744549 -8.5714521 8.0058889 29.108999
-28.5333 -4.10639 8.3087139 30.0035
-28.529423 7.8401556 8.1013241 30.091
-28.614496 -16.036203 8.6026897 29.5
-28.631268 -15.853513 8.5110426 29
-28.643162 -15.504007 8.6365519 28.142857
-28.59292 -15.043355 8.6679287 28.335333
-28.481972 -13.753761 8.605423 28.104
-28.759176 -12.179992 8.4882755 28.595249
-28.622635 -11.118643 8.4004717 30.081499
-28.793688 -9.3573809 8.414422 29.003
-28.562719 6.0074925 8.4147682 30.091
-28.696188 -15.79591 8.9767399 30
-28.731495 -15.461661 8.9544325 30.003124
-28.779701 -14.952948 9.0493412 30.00625
-28.795645 -14.439149 8.9343185 30.011999
-28.766794 -13.432077 9.0719242 30.011
-28.603613 -16.020479 9.4197731 29
-28.564333 -15.988729 9.3662958 29
-28.721331 -15.543312 9.5788412 30
-28.679663 -15.85373 9.6927929 29
-28.548477 -13.286345 9.9917259 30.009001
-28.607559 -13.215805 10.123185 30.009001
-28.795092 -10.011593 10.39124 30.113001
-28.57823 -15.317136 10.493057 30.022299
-28.500462 -14.310484 10.775558 30.105
-28.738443 -11.76675 10.769694 30.11425
-28.621271 -10.469323 10.416468 30.112669
-28.535248 -9.7298851 10.711484 29
-28.732029 -9.4786797 10.720815 29
-28.772236 -8.2693863 10.69573 29.0975
-28.507341 -6.989615 10.642959 28.364668
-28.617405 -4.9432979 10.698507 29.363998
-28.7502 -4.6530633 10.672528 29
-28.642706 -1.3059849 10.760264 30.091999
-28.666441 1.1610107 10.71501 30.092501
-28.762114 5.3757524 10.709016 30.086
-28.465616 -10.854095 10.805822 30.108
-28.567223 -8.6842375 10.852077 30.003
-28.279163 1.6892918 -2.1054931 20
-28.111843 2.0481925 -2.1261258 20
-28.191078 3.536695 -2.2638137 19
-28.090879 3.9215143 -2.2914619 19
-28.332775 -2.8010843 -1.8796715 22
-28.314348 -2.5304778 -1.8917304 21.5
-28.173008 -3.5021768 -1.5840803 22
-28.368704 21.022024 -1.1774174 23
-28.172756 -3.4172688 -0.51995021 22.5
-28.004044 -2.8283873 -0.73904067 21
-28.158104 -2.7773638 -0.19483346 21.5
-28.149542 -16.991806 0.20345342 24
-28.363302 -15.68867 0.21795957 22
-28.183231 -15.591265 0.35863826 24
-28.254128 -17.594278 0.59516466 23
-28.163542 -16.98461 0.61744648 23.636364
-28.018381 -16.00561 0.4382776 24
-28.188145 -15.571445 0.46371087 24
-28.37982 10.938096 0.70490611 26
-28.084421 50.303814 0.59294575 24
-28.245367 -17.573721 1.1289523 24
-28.174906 -16.97193 0.99024421 24.307692
-28.008738 7.6546102 1.1311644 27.025999
-28.362629 28.173918 1.1307566 25
-28.394939 28.567032 1.005051 25
-28.368439 49.99654 0.89024067 27.0285
-28.142118 -16.948191 1.4633474 25.363636
-28.393793 -16.453175 1.2446283 24
-28.377829 7.675271 1.2057607 27.017
-28.384548 8.0343933 1.2134556 26
-28.240156 21.66054 1.3433102 25
-28.275055 22.2955 1.5210243 25
-28.241125 23.034765 1.4656563 25
-28.273703 23.233065 1.2328284 25
-28.336386 27.608866 1.3607407 25
-28.343868 28.640944 1.3885369 25
-28.276644 50.371231 1.2088884 26
-28.208889 -17.518669 1.8949516 24.25
-28.19138 -16.941093 1.6770475 26
-28.002037 10.755569 1.8274441 27.1695
-28.372789 28.399666 1.6061146 25
-28.258177 29.191284 1.8931242 25
-28.334188 29.289688 1.7495903 25
-28.075146 -17.539679 2.3242714 26
-28.108925 -16.943386 2.2316232 25.25
-28.352413 -16.43561 2.1996932 26
-28.333096 10.212887 2.1156843 25
-28.072721 11.07496 2.0602505 25
-28.236731 21.007689 2.0787277 26
-28.23003 21.244404 2.2654119 26
-28.304701 22.211098 2.1089299 26
-28.219942 -17.485132 2.5293779 25.666666
-28.149946 -16.958776 2.5024552 23.6
-28.379967 -16.439663 2.4326801 26
-28.219091 11.008579 2.5043306 27.665751
-28.093637 -17.459581 3.1135664 24.666666
-28.181118 -16.878214 3.0393043 27.001123
-28.156786 -16.792143 2.9419427 27
-28.321447 15.466106 2.8433044 27.164
-28.22953 20.961149 3.130549 27.154751
-28.217909 -16.884758 3.574728 25.5
-28.140629 21.155138 3.3620653 27
-28.039848 21.214064 3.3609872 28
-28.207396 -17.436945 3.8369548 26.5
-28.28269 -16.846872 3.8843958 27.375
-28.204966 -16.767708 3.8267028 28
-28.065838 11.109276 3.6671574 27.168501
-28.185932 20.99847 3.6915565 27.0795
-28.209572 21.207998 3.7224264 27.074499
-28.37295 22.024508 3.7304194 27.073999
-28.170042 -16.861053 4.1455507 25.781
-28.036243 -16.761982 4.1090837 28.0135
-28.380589 -16.333319 4.373075 28
-28.342089 21.138384 4.1324453 28.1535
-28.152496 21.237289 4.357584 28.719168
-28.388342 21.783762 4.2721596 28.1555
-28.07818 -17.38468 4.5096002 27.5
-28.139229 -16.827179 4.6473279 28.005001
-28.26129 -16.734835 4.6601896 28.625
-28.394609 -16.308788 4.6445737 28
-28.235495 -17.400663 4.8404298 28
-28.119173 -16.858658 4.8736162 27.672834
-28.244768 -16.759752 4.9796281 27.25
-28.137735 -16.232224 5.0856924 26.674667
-28.248396 -15.868059 5.0112467 25.333334
-28.269093 -16.608679 5.311152 28.205301
-28.250015 -16.201702 5.4106774 26
-28.286169 12.987247 5.4333758 29.0835
-28.218773 13.242973 5.2199183 30.167
-28.144724 21.248739 5.4331899 29.578751
-28.281513 -16.651787 5.7246776 28.151215
-28.229069 -16.169621 5.753561 26.556723
-28.185862 -16.71076 6.2489381 29
-28.221861 -16.127922 6.2523789 29.008999
-28.140503 13.450869 6.1866274 30.162001
-28.370375 -16.560604 6.7971735 28
-28.231924 -16.249683 6.6392083 28.502251
-28.280764 11.224241 6.4077582 29.082001
-28.254646 -16.620165 6.9925299 28.003
-28.348667 -16.223063 7.1277981 30
-28.20812 8.0930595 7.053894 30.0905
-28.19956 -16.56938 7.4284439 30.036333
-28.324007 -16.201235 7.4708438 30.0065
-28.267706 6.4044404 7.4783416 28.084999
-28.314079 7.0963244 7.43115 28.084499
-28.178864 7.4423375 7.3846455 28.087
-28.141186 7.7268548 7.5921516 30.093
-28.18993 -16.631544 7.8415055 29
-28.23451 -16.157587 7.801621 28.347279
-28.06782 -9.6638355 7.9852204 27.096001
-28.093313 6.6027155 7.7143741 29.132376
-28.103966 6.8922715 7.6169109 30.094
-28.11237 7.3060207 7.6000776 30.0935
-28.077793 7.6098628 7.76125 29.174999
-28.041965 9.2743244 7.9435368 30.1735
-28.23909 -16.567636 8.1967955 30
-28.231121 -16.066765 8.2018089 28.121092
-28.338299 -15.862828 8.3470907 28.333334
-28.034386 -15.572085 8.3324757 26
-28.082619 -9.6668234 8.0480204 29.111252
-28.328182 -9.4236412 8.0632038 28.773666
-28.296007 -8.6234465 8.0111942 28.095501
-28.216866 -16.020588 8.5573692 29
-28.230993 -15.711771 8.5057287 27.333334
-28.268095 -15.329777 8.7288017 28.5
-28.288488 -12.132115 8.5205507 28.776833
-28.276558 -9.4093342 8.5716419 30.007999
-28.139317 -15.751541 8.9904232 30
-28.285246 -15.153595 9.0259075 30.012501
-28.311892 -16.030588 9.3703318 29.0236
-28.192453 -15.986411 9.721467 29.004749
-28.076351 -10.70203 10.323497 30.1115
-28.090101 -14.581947 10.749352 30
-28.394548 -13.891524 10.537606 27.0965
-28.095865 -12.637464 10.762265 30.115
-28.250286 -11.972953 10.708733 30.112499
-28.241304 -9.0222712 10.781458 30.096001
-28.215012 -7.3704896 10.649006 28.5
-28.230536 -7.0388308 10.549322 28
-28.192762 -3.4568324 10.690941 29.0935
-28.359564 -1.850621 10.742884 30.092501
-28.394381 0.65061092 10.6509 29.091999
-28.127373 1.7554421 10.698399 30.0905
-28.294655 3.3074944 10.778044 30.085501
-28.294456 3.9747858 10.699503 30.087
-27.75013 10.570849 -2.5611253 21
-27.862192 11.36302 -2.5717053 21
-27.717396 11.818898 -2.6614611 20
-27.980284 2.3979001 -2.1504493 20
-27.81275 2.7441308 -2.1713111 20
-27.686417 3.0859981 -2.1969631 20
-27.699455 -3.2830677 -1.7902893 21
-27.773108 -2.8203468 -1.6307669 22
-27.875362 -2.7167795 -1.8473368 21
-27.941275 -2.8899605 -1.4927619 20
-27.815781 50.176689 -1.3315549 23
-27.844513 -2.8419137 -0.91895735 22
-27.758564 -15.544866 -0.70870554 23
-27.807911 -3.4733169 -0.58655375 22
-27.678553 -2.8819528 -0.56956226 22
-27.778172 -16.913927 -0.019616874 23
-27.774078 -15.653254 -0.34626797 21
-27.825912 50.310997 -0.071830064 25
-27.829689 -17.007717 0.17642251 22.545454
-27.960312 -16.196756 0.23163904 23.5
-27.938837 -15.743583 0.27680531 22.666666
-27.64382 -15.554831 0.22990526 23
-27.85446 50.2658 0.25813976 24
-27.872707 -17.602152 0.53558505 22
-27.86911 -17.571459 0.61077142 23
-27.858553 -17.008904 0.60606253 24
-27.802296 -16.110792 0.44376895 22
-27.744818 -15.556052 0.65610707 24
-27.79619 -16.97411 0.9816727 23.875
-27.798382 7.6800694 1.1597946 27.035
-27.732475 8.0714025 1.1030353 26
-27.719213 49.938931 1.0294837 27.040001
-27.956505 -17.557608 1.3548059 24
-27.792774 -16.941607 1.4765962 25.466667
-27.898485 50.305172 1.3346182 24
-27.913168 -17.530815 1.8046532 23.75
-27.85751 -16.956963 1.6232169 25.200001
-27.796112 -17.529499 2.3209603 26
-27.815138 -16.933413 2.2093747 25.142857
-27.932297 -17.462702 2.4616408 25
-27.768999 -16.943079 2.5297225 23
-27.857054 10.717435 2.5303173 26
-27.923214 10.824158 2.7564499 29.003
-27.625675 -17.435003 3.0668554 26
-27.797325 -16.879673 3.0121398 26.428572
-27.775459 -16.795858 2.8449509 27
-27.884052 -16.838861 3.5422654 24
-27.80335 -17.432457 3.717093 26
-27.766195 -16.83942 3.9302428 27.135302
-27.80035 -16.759668 3.7799559 28
-27.61392 11.106204 3.62974 27.169001
-27.845741 -16.8591 4.1789727 26.147177
-27.852875 -16.768984 4.2040224 26
-27.990473 21.279655 4.3818736 29
-27.913816 22.051407 4.2580047 28.155001
-27.765816 -17.364609 4.5285039 26.764875
-27.800198 -16.829048 4.7002735 27.005001
-27.649311 -16.741589 4.6224279 29
-27.985935 49.706676 4.7504725 29.008499
-27.869226 -16.82461 4.8673797 28.336668
-27.799782 -16.754021 5.0103407 27.723083
-27.731998 -16.213675 4.9650388 27.669584
-27.857466 -15.909445 4.9722066 26.004999
-27.83926 -16.627289 5.2523479 28.202702
-27.83214 -16.209345 5.3737407 27.014599
-27.628492 13.229523 5.5561757 28.084499
-27.673956 -16.690989 5.6915503 28.029499
-27.760092 -16.165075 5.7353168 26.880001
-27.681826 13.544193 5.7549105 29.084499
-27.946619 21.31712 5.9925642 29.074499
-27.987707 -16.803976 6.251029 29
-27.760115 -16.678228 6.2065949 29.067499
-27.765087 -16.126379 6.1899066 28.254063
-27.618736 11.194878 6.3526835 30.1675
-27.687927 13.44736 6.3195372 30.16375
-27.721018 -16.186489 6.5983181 28.8027
-27.642136 -16.183981 7.0295181 30
-27.773636 -16.171705 7.4333854 27.186417
-27.606688 7.7736254 7.4790683 30.093
-27.98852 8.7003202 7.5815625 30.091999
-27.65847 8.9040785 7.5564866 30.091499
-27.603521 -16.647219 7.7613053 29.0865
-27.82272 -16.057011 7.765573 28.280249
-27.650427 -4.0069952 7.8525996 30.095501
-27.985615 6.0582151 7.6204262 30.094999
-27.970598 7.0179229 7.6419559 30.094
-27.92112 -16.529736 8.1468086 30.067499
-27.739332 -16.059015 8.2144413 27.774834
-27.812132 -9.8222113 8.0469456 28.604
-27.898516 -16.06213 8.6513023 30.004999
-27.728548 -15.662475 8.4734983 27
-27.711721 -15.393557 8.641572 27.701777
-27.717133 -15.080125 8.6037579 27.641102
-27.703575 -14.656358 8.548316 27.301998
-27.72438 -13.840809 8.5430946 28.107666
-27.720642 -13.400554 8.6182022 28.4415
-27.759279 -13.015257 8.6251812 28.968927
-27.840307 -12.607316 8.5605211 28.7001
-27.764132 -12.235269 8.4239206 29.114376
-27.702496 -9.8493557 8.4691629 30.008499
-27.799162 -15.935259 8.8855295 30.0135
-27.6642 -15.38238 9.072403 30
-27.644728 -15.022958 9.0501204 30.002501
-27.655434 -14.573436 9.0578108 30
-27.658766 -14.32654 8.8743658 29.563
-27.643925 -13.758883 8.976037 30.011499
-27.660538 -13.419105 9.1084919 30.011
-27.6702 -13.100922 8.91084 30.011
-27.725311 -16.017555 9.6080732 28.1
-27.881508 -16.006252 10.231417 30.011
-27.787268 -10.893353 10.399374 30.111
-27.855621 -9.8923368 10.371811 29.603251
-27.691549 -14.927441 10.747275 30
-27.813219 -12.927875 10.743594 30.115831
-27.743742 -12.646385 10.79132 30.112499
-27.683935 -10.831427 10.677876 29.1015
-27.994047 -9.2758932 10.587512 28.098
-27.938963 -8.8002262 10.677318 29.096001
-27.99889 -7.3056097 10.519198 28
-27.991093 -6.8518181 10.725497 30.099501
-27.606726 -1.3038497 10.68704 30.0945
-27.719843 0.059945911 10.60983 29.092501
-27.850271 2.1185253 10.765759 30.0865
-27.605364 6.7403483 10.691024 30.084999
-27.767458 -3.3119025 10.978263 30
-27.805277 -2.994463 10.986242 30.000666
-27.837065 -2.6072316 10.978999 30
-27.895945 -2.3221357 10.996468 30.00075
-27.959528 -1.4270474 10.98839 30
-27.274969 10.926649 -2.5896509 21
-27.481831 11.736712 -2.6059055 21
-27.261887 12.089979 -2.6768961 20
-27.390041 12.608494 -2.5764227 20
-27.564016 3.4230456 -2.2233059 20
-27.339884 -3.4237347 -1.8264599 20
-27.280731 -2.9288292 -1.7758566 20.666666
-27.29344 -2.5206807 -1.8862696 20.5
-27.295626 -2.1998346 -1.9072108 20
-27.406643 -1.1050012 -1.9835796 22
-27.592928 -3.4891171 -1.575263 20
-27.248127 20.514521 -1.4714236 23
-27.445435 -16.590651 -1.0171597 22
-27.392921 -2.9533186 -1.0524298 21
-27.342325 21.253567 -1.0555652 24
-27.374247 -16.870438 -0.52073193 21.799999
-27.375242 -16.758633 -0.54302764 21.5
-27.286703 -16.191549 -0.53004956 21.75
-27.3249 -15.813282 -0.5623436 23
-27.492802 -15.561545 -0.5756917 23
-27.350616 -14.442987 -0.68416619 23
-27.266792 -3.4193628 -0.48322183 22
-27.325041 -2.8929377 -0.44088119 21
-27.456327 50.493534 -0.53316152 25
-27.381283 -16.940237 -0.13962695 22.666666
-27.421682 -16.585644 -0.094468042 23
-27.318132 -16.123787 -0.11253007 24
-27.323896 -15.758246 -0.1310233 23.4
-27.203621 -2.9284546 -0.16666481 22
-27.272326 27.371056 -0.30511981 26
-27.440462 50.306034 -0.11706854 25
-27.398684 50.504601 -0.34286383 25
-27.372669 -17.011101 0.19571809 23.75
-27.462639 -16.601921 0.08954782 24
-27.329659 -16.218206 0.073558427 23
-27.344038 -15.855047 0.13812351 23.384615
-27.390396 -17.54986 0.60350847 22.666666
-27.375069 -16.999033 0.54691976 23.363636
-27.416515 -16.45293 0.6085428 23
-27.287849 -16.065496 0.62544483 24
-27.277058 -15.840191 0.65544564 24
-27.560139 -15.553493 0.55126393 24
-27.305792 50.287449 0.5867362 24
-27.255184 -17.604958 1.1915774 25
-27.454344 -17.568476 1.1474736 24
-27.393396 -16.961241 0.98214817 23.941177
-27.528992 7.7029901 1.1418737 27.0165
-27.452868 50.021679 0.83789772 27.028
-27.347092 -17.53968 1.3665642 24
-27.393835 -16.922514 1.4665892 25.666666
-27.490843 -17.51062 1.79161 24
-27.437101 -16.962067 1.6113597 26
-27.547445 7.7359934 1.7630414 28.0165
-27.382515 -17.505013 2.3151145 26
-27.416611 -16.926924 2.155937 25.25
-27.363987 8.1224279 2.2039316 27.165001
-27.546803 -17.44746 2.4591994 25
-27.413942 -16.947084 2.5998757 23
-27.548204 10.894382 2.5166624 28.169001
-27.381512 -17.501249 3.0734935 26
-27.402794 -16.88295 2.9642222 26.637817
-27.338602 -16.780924 2.9121418 27
-27.467234 -16.833931 3.5219843 24
-27.384518 -17.415337 3.7643163 26.865644
-27.388781 -16.848644 3.9103961 27.002502
-27.382565 -16.754578 3.8930767 28
-27.587315 11.116582 3.6016176 27.168501
-27.439714 -16.849012 4.2057657 25.433714
-27.30899 -16.784554 4.2380662 24.5
-27.547434 20.92774 4.3879008 30.02
-27.424807 -17.371065 4.5573492 27.723999
-27.466805 -16.803505 4.71907 27
-27.418728 -16.751434 4.5933676 27.666666
-27.299084 49.511166 4.443244 29.040001
-27.396078 -16.73518 4.9729252 27.52779
-27.459063 -16.201654 4.9677496 26.013834
-27.42033 -15.757885 5.0461979 29.013
-27.404465 -16.182093 5.4021544 26.092455
-27.441774 -16.669758 5.6789222 28.5205
-27.478355 -16.182606 5.7753983 25.75
-27.34499 25.515593 5.7574286 29.076
-27.470722 -16.587799 6.223568 30.050501
-27.402721 -16.169825 6.2720213 28.720074
-27.203777 -16.595753 6.5150504 30.0595
-27.537485 -16.280773 6.5993094 27.626625
-27.44002 11.223104 6.4205332 30.088499
-27.521618 -16.251717 7.0234308 27.903351
-27.31741 7.8809485 7.1792932 27.084999
-27.46533 8.0161791 7.0047259 30.088499
-27.355455 -16.169443 7.3805828 27
-27.410772 6.1110015 7.4908381 30.094999
-27.439045 -16.071463 7.768043 27.32095
-27.233587 -10.303927 7.9667335 29.1115
-27.596056 -9.9911699 7.9939251 29.111
-27.475672 -8.5408173 7.9892197 30.1005
-27.305073 -16.526005 8.0536623 30.068001
-27.452532 -16.055962 8.1931963 28.608356
-27.407377 -15.943763 8.2141123 26.666666
-27.372622 -14.244854 8.3574839 28.105499
-27.258173 -10.258323 8.08634 28.602501
