# .PCD v0.7 - Point Cloud Data file format
VERSION 0.7
FIELDS x y z intensity
SIZE 4 4 4 4
TYPE F F F F
COUNT 1 1 1 1
WIDTH 1279
HEIGHT 1
VIEWPOINT 0 0 0 1 0 0 0
POINTS 1279
DATA ascii
4.9593277 -3.7861977 -0.60659617 20.403225
4.986722 8.161026 -0.54671031 21.666666
5.0270982 8.4387426 -0.40357444 22
5.1878328 8.8789349 -0.64573354 22
5.0262446 11.531399 -0.51317686 23
4.8591194 11.768106 -0.48580393 23
4.916502 31.304491 -0.40772861 23
4.9656091 -3.7850487 -0.24907862 21.936344
5.0226622 8.2014017 -0.29905337 22.696077
5.0013928 8.4288321 -0.39169407 22
4.9980822 11.719602 -0.10528196 23
4.9946752 18.129732 -0.20782478 23
4.8270593 20.131157 -0.18095088 23
4.9757257 -3.7990313 0.20274056 23.684019
5.0136266 11.66681 0.32246822 24
4.9566917 -4.0034599 0.40818271 24
4.9486675 -3.805439 0.59431469 25.740564
5.0028472 11.68657 0.59704995 24.6
5.0399652 23.505564 0.63509691 24
5.0281835 31.009027 0.70300204 24
4.9666891 31.356462 0.67591953 24
4.8694301 37.589542 0.72693461 24
4.909934 37.600002 0.77025175 24
4.9343524 38.635422 0.74841297 24
4.9360743 -4.0053172 1.118196 25
4.9812078 -3.8267186 0.99812734 27.799088
4.9807544 -3.8400805 1.3854475 29.223877
4.9923644 21.38302 1.2516143 25
4.9830737 -3.8597116 1.7917718 28.245348
4.8092642 10.751802 1.9748435 28.128
4.8718853 14.651477 1.8705692 27.129999
5.0739689 31.348431 1.7477267 25
4.9669614 -3.8738668 2.1950655 27.938
4.8496742 9.8437757 2.2154837 29.629002
4.8864636 10.040503 2.326015 29.122499
4.8660378 10.837708 2.0334201 28.12575
5.1468039 20.963659 2.2829289 25
5.0982332 31.336054 2.108743 25
4.8986821 38.647781 2.0179126 25
4.9929156 -3.8596189 2.5944862 28.261564
5.0360866 14.408685 2.7063482 28.1415
5.0366502 31.051619 2.6805804 26
4.8363733 40.677662 2.4491816 25
5.0344677 -3.8797121 2.9279516 29.222221
4.8109913 10.644098 2.9511218 29.1535
4.9439201 10.995488 3.058223 28.795668
5.0126214 11.522038 3.0177042 27
4.9636574 11.795697 3.0976899 29.098669
5.1117263 12.176797 3.0031805 29.385534
4.9318748 12.534807 3.026664 30.129999
4.8065548 13.779019 3.0763769 29.1425
4.9517636 14.308745 3.002326 29.1327
4.9568686 18.954576 2.8561397 28.133501
5.1570606 20.468365 3.0617173 28.132999
4.9289174 21.159002 2.9126165 27.148001
5.190764 31.015028 2.8419447 26
5.0648155 35.418015 3.0905964 26
5.0951447 36.047047 3.1054873 26
5.0003996 36.980057 3.1624985 26
4.9866233 -3.8816979 3.3649895 29.002846
4.9325652 10.703776 3.4585161 29.158001
5.1570387 11.136388 3.4714308 29.157
5.0555863 11.444914 3.4503479 27.406332
5.1014028 11.739857 3.423233 28.722334
5.0287147 13.52633 3.2573881 30.133249
5.0709987 13.63947 3.2649722 30.132668
4.8245964 18.425198 3.356097 28.129999
4.9912543 20.326124 3.576405 28.1485
4.8635764 38.636868 3.2905676 26
5.0920997 40.644207 3.5870388 26
5.0557704 -3.934912 3.8171253 30
4.9751015 11.08111 3.8518021 28.387667
4.9581957 11.400622 3.9122553 28
5.134685 11.821931 3.8971202 28.359833
5.0859623 16.967455 3.6543748 29.136749
4.8589721 17.428308 3.6920567 29.132626
5.1287622 19.519115 3.8217862 29.129499
4.8578238 20.340803 3.6731021 28.132
5.0707512 30.876545 3.6843896 27.129499
5.084312 31.466074 3.8111312 27.136499
4.9620862 32.849022 3.9660456 27.129999
4.8041463 10.595114 4.2289939 29.176001
4.9951825 11.229897 4.2066059 28.775331
5.0739064 12.963945 4.1162686 30.15325
4.8544393 13.739782 4.2881694 30.1525
5.0929365 16.732313 4.1042013 30.134499
4.9806123 16.953058 4.2722125 30.139166
5.1906147 17.405874 4.3350039 30.137249
4.9376755 17.819807 4.3621559 30.13125
5.0059595 19.248055 4.1115289 29.133499
5.1188827 20.400373 4.3677187 29.132999
5.1066089 32.206272 4.0414977 27.142
4.839056 35.88562 4.2098413 27.129499
5.1712523 36.055172 4.3014159 27.136999
5.1584573 -3.8762438 4.692152 30.013
4.8430114 -3.3395774 4.5598898 30.009501
4.8782773 10.585813 4.5304198 29.269901
4.9293795 11.064347 4.5580873 29.284376
5.0686841 11.44245 4.5570641 28.730667
5.1805358 11.751832 4.6020708 29.007
4.9485331 12.683261 4.5072317 30.1565
5.0861273 19.265198 4.7864652 30.135
5.1115651 20.620214 4.4528003 29.134501
5.0393896 36.821407 4.4725108 27.139
4.9480863 10.730077 4.9840097 30.168251
5.1136694 10.9645 5.0056043 30.17
5.1419764 11.758086 5.058105 30.17
4.9916258 19.206196 5.0404983 29.1625
4.9890032 10.646596 5.2053332 29
5.145474 11.486202 5.2533865 30
5.5623684 1.7850844 -1.2511712 16
5.437819 2.2199473 -1.2706869 16
5.2785826 2.5956354 -1.2849078 16
5.5084138 3.5236554 -1.2835716 16
5.3101916 3.777318 -1.2976122 16
5.4469886 4.1919489 -1.2915455 16
5.2820535 5.6776981 -1.3824964 17
5.3599586 6.7707005 -1.4361837 17
5.3911729 -3.7921269 -0.92200172 18.546875
5.3653998 -3.3842638 -0.88145167 18.299999
5.3967624 -3.0020781 -0.93840927 17.848486
5.4070306 -2.5735455 -1.0090418 17.857143
5.4122233 -2.1635368 -1.0494763 17.6
5.4042058 -1.7919791 -1.1554135 17.333334
5.4178514 -1.3461692 -1.1433649 18.222221
5.4023705 -1.1076413 -1.1285983 17.75
5.5336323 -0.58516425 -1.1259414 19
5.4118538 -0.12916633 -1.1014504 18
5.4313526 0.074375853 -1.1105065 17.5
5.2471771 0.56628621 -1.0879099 16
5.2238455 1.0054718 -1.0714085 16
5.575561 1.334366 -1.0756267 19
5.5169883 1.7874273 -1.0695478 19
5.4505272 2.1446137 -1.0651382 19
5.4933662 3.029824 -1.0087497 18
5.2613578 3.4331028 -1.0106096 17.5
5.3836727 3.8179903 -1.0000091 18
5.208859 4.0264568 -1.0293146 20
5.4248729 4.6153002 -0.9889679 19.5
5.3237267 4.9114461 -0.98891944 19.5
5.435585 5.492867 -1.0137367 18.666666
5.4200263 5.7839704 -0.99652642 19.125
5.3643317 6.2568622 -0.96639299 19
5.4336824 6.593822 -1.0133467 19.6
5.3706126 6.9614663 -0.99009013 19.125
5.4130383 7.3323207 -0.984833 20.142857
5.3583894 7.7835355 -0.97005314 20.125
5.3942246 8.1397972 -0.91385406 20.625
5.4285412 8.5305738 -1.0084903 20.333334
5.2544236 8.8508101 -0.9922415 20
5.3149529 11.098446 -0.97504181 22
5.4528875 11.681691 -0.9679898 22
5.2858233 12.590362 -0.94594342 22
5.4013305 -3.8365455 -0.60072142 20.445175
5.4235992 8.1228962 -0.56998104 21.59375
5.260097 17.817511 -0.7136212 23
5.3725901 -3.8185811 -0.22776967 22.055555
5.4145517 8.1622829 -0.27412641 22.541668
5.4618297 20.562889 -0.097359352 23
5.3935375 -3.8252082 0.19501397 23.639879
5.3645935 11.674459 0.30130634 24
5.3174782 -4.0084233 0.41788173 24
5.3842239 -3.8410137 0.58569056 25.581156
5.3994427 11.680132 0.60562122 24.571428
5.3188095 22.298367 0.62648112 24
5.4904494 31.131367 0.65954447 24
5.2712636 31.316063 0.79815972 24
5.4898715 35.768677 0.77899444 24
5.5051508 37.727516 0.73951298 24
5.4535341 -4.0331173 1.1514457 27.01675
5.3922939 -3.8544314 0.99781996 27.511578
5.3893948 -4.0853896 1.2441155 29.282375
5.4011211 -3.8498898 1.3738333 28.890285
5.5817957 20.698952 1.2348098 25
5.3533211 21.073959 1.2449256 25
5.3024402 21.356981 1.2476032 25
5.4088006 -3.8591857 1.792071 28.934898
5.4731903 21.403772 1.9636188 26
5.4900703 31.187002 1.7174478 25
5.3418841 31.281479 1.7494243 25
5.3379149 32.242043 1.753386 25
5.4059167 -3.8617806 2.1878946 28.64753
5.4788561 21.170807 2.3118336 26
5.4322906 -3.870863 2.5816503 28.439375
5.4269643 11.387551 2.7294571 30.133125
5.4117332 11.89741 2.4624596 29.127001
5.5027313 12.211703 2.461282 29.132875
5.3795013 21.170828 2.526201 27.134001
5.5084715 21.260248 2.5630863 27.129
5.472002 31.135206 2.6742556 26
5.4191799 31.381437 2.7057974 26
5.3893914 -3.882746 2.9985423 28.889778
5.4014387 11.108909 2.9791088 28.161501
5.4192996 11.421856 3.0999434 28.762167
5.4445553 11.74474 3.1035562 29.145834
5.3753014 12.127705 3.0596919 29.99143
5.2835116 19.976255 3.0158007 28.134501
5.5289164 20.014807 3.0762603 28.064751
5.4080296 21.133524 3.149123 28.1315
5.3233151 21.297731 2.8335464 27.146
5.2520356 31.259596 2.8601689 26
5.4832263 37.492512 3.1895721 26
5.4315519 -3.8764682 3.3166225 29.00375
5.4183106 11.156726 3.283397 29.1555
5.4491787 11.399895 3.3804231 28.426895
5.4083252 11.729553 3.3890703 28.468649
5.4531622 12.198256 3.4401326 27.445501
5.2890515 18.768822 3.3730748 28.129999
5.4867258 21.11101 3.2379491 28.129
5.4969435 21.228777 3.2155397 28.129
5.5056386 37.562344 3.2133095 26
5.5836201 37.615822 3.3290203 26
5.2061343 11.094882 3.9659169 30.157
5.4578648 11.448172 3.8329344 29
5.3064089 11.692693 3.8731642 29.039249
5.5066519 12.068362 3.8895574 30.153999
5.3524342 13.585531 3.701164 30.1395
5.3703628 17.08276 3.6485047 29.130299
5.5617361 18.641977 3.602041 29.129499
5.3655963 19.382254 3.7935765 29.136
5.4458489 30.532503 3.8445637 27
5.4119992 32.272106 3.8425245 27.130333
5.4283824 11.062813 4.3415098 28.734833
5.3066478 11.428277 4.1502967 28.585251
5.2721906 11.847977 4.1338568 29.1605
5.5657358 12.6086 4.2138371 28.009501
5.4714937 16.923822 4.1451287 30.133835
5.2564073 17.299236 4.2180185 30.1325
5.5707817 19.102741 4.10008 29.134001
5.2443929 19.573013 4.1730733 29.131001
5.3652663 21.035748 4.0667915 29.1325
5.5497513 47.052002 4.10814 26
5.2861166 -3.854398 4.4173326 30.0105
5.4870148 11.127574 4.4891686 28.512001
5.3893633 11.381505 4.5150352 29.061501
5.4347944 11.810113 4.4836941 28.404999
5.2138944 12.516954 4.5352755 29.660252
5.4135995 18.219143 4.4918489 30.13475
5.2706671 18.937447 4.7395492 30.138
5.5674033 19.436943 4.7805729 30.1325
5.5010791 20.15543 4.5894251 30.130501
5.3822498 21.095879 4.5295558 28.168501
5.3211484 21.672718 4.5633926 28.1485
5.4923816 35.809807 4.6316137 27.146
5.4391999 36.625046 4.5221601 27.1315
5.472002 11.001853 4.8911014 29
5.2884545 11.440206 4.9806461 29.58625
5.2790785 11.788547 5.0206475 30
5.2842202 12.046171 5.0679126 30.171749
5.388485 19.396368 4.8159957 30.136
5.4684038 20.754866 5.1215172 30.1315
5.4510694 20.816557 5.1756511 30.134001
5.2182465 31.99715 5.049583 28.141001
5.4079099 37.039078 5.0798306 27.1525
5.2272363 11.574643 5.2464018 30
5.7479205 -0.02068362 -1.2114246 18
5.6374707 1.3877373 -1.232255 16
5.8366318 3.0228097 -1.2595472 16
5.7874784 3.4802525 -1.26213 16
5.7619257 3.8419898 -1.2656766 16
5.7932878 6.5721536 -1.413347 17
5.9293294 7.1464262 -1.4029233 17
5.7673073 -3.7566199 -0.95212412 18.727272
5.7924132 -3.3157694 -0.92584026 17.714285
5.7727551 -2.9997509 -0.92139184 18.772728
5.8440704 -2.5615029 -1.0276819 17.555555
5.7459311 -2.247947 -1.0242778 18
5.7671103 -1.815641 -1.1435324 18.75
5.8207383 -1.4583601 -1.0782015 17.200001
5.8519516 -1.078245 -1.1350011 18.666666
5.7574377 -0.59133619 -1.0955772 17.833334
5.8841491 -0.10669152 -1.0730516 18
5.9783978 0.12277263 -1.0867362 18
5.7706585 0.58473283 -1.0760514 18.5
5.7459297 1.0233153 -1.0633444 18.5
5.8679504 1.2962528 -1.0392704 18
5.9084301 1.7448865 -1.0267904 18.333334
5.8380241 2.1419587 -1.0211741 18.333334
5.6709638 2.6482902 -1.0147688 17.5
5.9199052 3.0857718 -0.97931951 17
5.6918659 3.4553671 -0.98062384 17
5.9234529 3.8413022 -0.97303855 19.666666
5.7885466 4.1291237 -0.99448264 19.666666
5.6680322 4.6345334 -1.0167558 18
5.86831 5.0142946 -1.0027345 18.4
5.8353605 5.4499831 -0.98992765 19.200001
5.8193469 5.8754807 -0.99016243 18.333334
5.8009028 6.2648768 -0.96648926 19.25
5.7379751 6.6050534 -0.98371452 19.5
5.7849212 7.0426145 -0.99452299 19.799999
5.8965445 7.3113708 -0.97088647 20
5.8104887 7.8502669 -0.9580695 20
5.8377075 8.1651678 -0.92650646 20.5
5.8139954 8.700428 -1.0074918 20.5
5.9311819 8.8091431 -1.0248092 21
5.8238659 -3.8415034 -0.59870553 20.431482
5.7291961 -3.4705122 -0.77617443 20
5.7752781 8.1511421 -0.59274453 21.1875
5.7009869 15.87463 -0.69751841 23
5.8106904 -3.8334186 -0.2374042 22.082493
5.7916079 8.1501589 -0.26281968 22.417391
5.7368484 11.364599 -0.18606955 23
5.7629666 18.228062 -0.074285716 23
5.8981071 20.533978 -0.11834911 23
5.9941649 23.584066 -0.13356075 23
5.9552026 -12.909231 0.24932043 25
5.8184357 -3.8366582 0.20002152 23.553049
5.9933076 8.3072987 0.060630318 23
5.9437866 8.4224854 0.074518599 23
5.8502703 11.596218 0.28301898 24
5.7538147 11.66321 0.28295854 23.888889
5.8978114 -4.0114536 0.54412884 25
5.8066702 -3.8482978 0.58419317 25.28417
5.8065796 11.684933 0.60413307 24.555555
5.7558265 37.133556 0.74338174 24
5.860178 37.306011 0.76911694 24
5.8792405 -15.732839 0.99535441 25.333334
5.8075533 -13.318707 1.0962931 25
5.809557 -9.8309622 0.8718282 25
5.7294636 -4.0327334 0.86471611 27.53425
5.8082442 -3.8543892 1.0032582 27.452555
5.8495684 21.069921 1.1921995 25
5.9060044 37.23262 0.82765305 24
5.8062143 38.38522 0.80006093 24
5.935545 -6.3369808 1.270431 26
5.9026537 -4.3016171 1.451322 30.0355
5.8065748 -3.8461378 1.38477 29.106787
5.8963947 20.343683 1.220687 25
5.8368711 20.966133 1.2188529 25
5.7785554 -12.901344 1.8961333 27.048
5.8821707 -8.6313076 1.9943279 27.022125
5.8385968 -8.335989 1.999845 27.042
5.9290953 -7.8465118 1.9652567 27.0445
5.7410293 -4.2257051 1.708232 31.031
5.8077989 -3.8534076 1.7940603 28.681454
5.790432 20.199677 1.9310752 26
5.7053585 29.639368 1.6326429 25
5.8028321 33.629768 1.8282878 25
5.9242039 -7.0414047 2.10287 27.014502
5.9282079 -6.672554 2.0617366 27
5.9156909 -6.1781988 2.1220787 27.020374
5.9484277 -5.7200518 2.0685132 27.02075
5.9552512 -5.330853 2.0961468 27.026833
5.821475 -3.8583453 2.1864946 28.648056
5.7220201 11.988684 2.3843834 29.128
5.7061076 12.424468 2.1786866 28.1245
5.7155437 -13.822241 2.6067917 27.047501
5.6853709 -12.611021 2.7278323 28.047501
5.7954726 -9.9441681 2.5428829 27.042999
5.7715478 -9.0167561 2.7467866 28.046
5.7918396 -8.5854931 2.7969153 28
5.7848358 -7.8949351 2.769047 28.0445
5.7922425 -7.496284 2.7787814 28.044001
5.8286724 -3.8878675 2.5516608 28.391199
5.7010608 11.559109 2.5199738 29.123249
5.8434381 11.802438 2.7617347 30.12775
5.7712202 12.079608 2.4944215 29.126167
5.6281819 12.49574 2.4576218 29.135
5.7729292 21.086657 2.5149143 27.131001
5.9150009 21.353447 2.551878 26.564251
5.6028323 31.067999 2.7738657 26
5.8924685 -15.852982 2.9725392 27.046499
5.7129354 -11.335762 2.9895616 28.049
5.7527151 -9.7051792 2.9862502 28.047001
5.7692428 -5.7485061 2.9104567 28.019249
5.797864 -5.4780393 2.9146392 28
5.8117104 -4.4374995 2.9676125 28.0385
5.7766271 -3.8692067 2.9957297 29.799999
5.8064432 11.793643 3.0659223 29.967461
5.8499241 12.206476 3.1106548 30.129499
5.7668929 20.144365 3.0196223 28.105152
5.8669171 20.447458 3.0447586 28.131001
5.6854835 -10.340212 3.3948054 28.043501
5.7578712 -3.8777051 3.3285856 28.607502
5.716382 11.486504 3.4716256 29.1565
5.7045841 11.886386 3.3605373 28.936752
5.7041945 12.163921 3.2339599 29.807167
5.9017487 21.182837 3.2593663 28.1285
5.8262372 32.30262 3.3531263 26
5.9072642 36.096249 3.4887223 26
5.7171254 37.665367 3.2776446 26
5.6813312 41.056488 3.5262771 26
5.6390667 -8.5897446 3.6127291 29
5.7843194 -3.8628776 3.6291378 29.508999
5.9515624 -3.3738518 3.7955573 30.0075
5.945436 -2.7933257 3.6727276 29.009251
5.6835399 11.785742 3.653651 28.67
5.8130918 12.214057 3.8917289 28.581001
5.6810217 30.586765 3.7401788 27.1395
5.715857 31.093365 3.8207207 27.129499
5.9090662 31.850338 3.7715375 27.130501
5.7034402 32.172024 3.8240771 27.129499
5.7561445 -3.8923934 4.1961498 30.009501
5.6639624 11.462342 4.2249022 29.501167
5.6554737 11.844608 4.2524276 30.157
5.7133498 13.052143 4.2409921 28.009001
5.6529679 16.903339 4.1456013 30.129999
5.7177773 19.135445 4.1538992 29.1285
5.7033315 19.535908 4.1676145 29
5.7468228 30.300211 4.3406739 27.155001
5.9384828 33.92527 4.3432231 27.143499
5.6938872 48.319191 4.2000608 26
5.6326399 11.170164 4.4340687 29.179001
5.7134023 11.472395 4.5580683 29.6255
5.6230049 11.765885 4.4283667 30.158501
5.6976376 12.159144 4.6869607 30.165001
5.6894202 13.095066 4.583282 28.012501
5.7018843 19.391594 4.7824054 30.045166
5.9979897 30.329889 4.5814257 28.130501
5.62008 30.407259 4.5759177 28.129
5.8991919 36.784004 4.4950004 27.139
5.8041039 36.840591 4.5420132 27.139999
5.8038206 11.908855 4.9604163 29.01
5.9854918 19.680365 4.8639593 30.133499
5.7934785 11.77482 5.2672987 29.0135
5.9543409 32.26601 5.2761812 28.143999
6.1922035 -12.860951 -2.2538669 22
6.3697701 1.7181054 -1.2051265 16
6.229454 2.216974 -1.2281728 16
6.0360155 2.655622 -1.2438483 16
6.2820625 3.088917 -1.2178341 16
6.1245518 3.3307548 -1.2300159 16
6.2128062 5.0335174 -1.3119383 16
6.2392898 6.3290124 -1.3892621 17
6.1487222 7.0758605 -1.3916084 17
6.1835685 -3.7442894 -0.93649858 18.912699
6.125165 -3.3006434 -0.96980608 18.1875
6.1984248 -3.0542717 -0.90565747 17.857143
6.2202988 -2.5421834 -0.92021304 18.25
6.1775026 -2.1964054 -1.1272564 17.142857
6.2838321 -1.8070924 -1.0517167 17.666666
6.3471303 -1.3898129 -1.1497884 19
6.3977299 -0.9831304 -1.0698664 17
6.032732 -0.58597523 -1.0997554 18.333334
6.0972409 -0.18214385 -1.0772513 18
6.1265106 0.13607022 -1.0625702 16.5
6.1720061 0.57706207 -1.0962112 16.333334
6.049531 1.0837415 -1.0429013 16
6.0273857 1.3538888 -1.0375555 17
6.2928147 2.2877176 -0.98859304 17
6.2730198 2.6816466 -1.0067507 18.5
6.2122459 3.0433593 -0.9926675 18.666666
6.1711817 3.4188914 -0.99702471 19.5
6.0334978 3.6522155 -0.99522996 19.75
6.3473501 4.2303309 -1.0001442 20
6.2855339 4.6345363 -0.96520549 18
6.1515613 4.9805803 -0.96289474 19.666666
6.1871977 5.3509998 -0.98261303 18.333334
6.1894655 5.7939677 -0.98862231 19
6.2101836 6.2411642 -0.97719902 19.6
6.1805515 6.5340128 -0.97512692 19.799999
6.1734891 7.0563388 -0.95824522 19.222221
6.1965079 7.2501688 -0.92513269 20
6.2471905 7.7827935 -0.95960313 20.375
6.2148895 8.1313877 -0.90861541 20.380953
6.1646886 8.6069088 -0.93937773 21
6.1243763 8.8604288 -0.96111143 20
6.1570206 13.351593 -0.83864993 22
6.0550156 -12.443333 -0.54727107 24
6.0452943 -10.750639 -0.47515455 24
6.0627747 -10.16963 -0.45165676 24
6.0741634 -9.5951452 -0.42850733 24
6.1189189 -9.0793152 -0.4338651 24
6.1814828 -3.7539358 -0.59968787 20.399715
6.3453879 -3.2917051 -0.79066199 19
6.2013102 8.1607199 -0.60058409 21.083334
6.3678813 13.552766 -0.71871066 23
6.0836115 18.161545 -0.64242548 23
6.041512 -10.655125 -0.3110477 24
6.045321 -10.311157 -0.29826394 24
6.0540075 -9.8850651 -0.28212979 24
6.0618629 -9.4673443 -0.26621795 24
6.1007624 -6.7776027 -0.16121288 24
6.1672106 -3.7759559 -0.21162406 22.095627
6.2076693 8.1434479 -0.2067067 22.6
6.2043676 18.12995 -0.18529259 23
6.2729301 20.639959 -0.10946254 23
6.1672397 -3.7892566 0.2099285 23.58568
6.2484908 7.9891491 0.06608393 23
6.195004 8.2116585 0.12120158 23.190475
6.2741561 8.5491753 0.27751365 23.888889
6.2330518 8.9310274 0.29320243 24
6.3145328 9.4038534 0.29003614 24
6.2030263 11.646631 0.29462394 24
6.1558833 -3.7976134 0.58689851 25.283985
6.278204 8.2132006 0.6002568 24
6.228085 11.396204 0.6597538 24
6.2126794 11.700251 0.61888039 24.555555
6.3669605 37.20874 0.78405482 24
6.1407437 37.905632 0.79950625 24
6.0688062 38.201324 0.74534017 24
6.1217966 38.759048 0.76483274 24
6.1687803 -10.571568 1.0103124 26
6.1488338 -10.030568 1.0406325 26
6.1360168 -9.6498804 1.0514339 26
6.1633959 -9.3159008 1.035033 26
6.1944742 -8.602704 1.0289893 26
6.1909709 -8.2258406 1.0405442 26
6.1716242 -7.0361929 1.1392663 26
6.1954751 -4.3108215 1.19682 26
6.1586666 -3.7994654 1.0133621 27.41703
6.0764518 37.159397 0.80757475 24
6.1972785 37.718601 0.84045374 24
6.117341 -6.8239994 1.3035532 26
6.0707626 -4.0578527 1.215541 29.032501
6.1548228 -3.8098483 1.3710624 28.824444
6.0944362 -13.658478 1.7225059 27.049
6.3433256 -4.2443552 1.7616373 31.031
6.2369943 -3.8630826 1.7615279 28.881395
6.1625857 20.321949 1.9033084 26
6.1073279 -15.009895 2.0026326 27.053499
6.2003946 -3.8580022 2.1641166 28.949011
6.2805762 20.00536 2.3585942 26
6.2563744 20.637138 2.3978004 26
6.1731353 -16.060499 2.4925284 27.049999
6.1217833 -15.394119 2.6291642 27.047749
6.0865564 -14.717104 2.7595818 27.0455
6.1785088 -14.116833 2.434556 27.048
6.0985012 -13.743536 2.7204907 27.0445
6.0755396 -13.284354 2.5028572 28.0485
6.0555739 -6.9227266 2.6416698 28
6.0611343 -6.1881504 2.6697979 28
6.056191 -5.9303398 2.6813967 28
6.1428585 -4.9211512 2.6517928 28.040501
6.1968246 -3.8942728 2.5346725 28.417418
6.1115556 11.847898 2.6071854 29.12175
6.2319179 20.737537 2.5404418 27.128
6.1422067 20.910673 2.5581608 27.133667
6.1081676 46.765232 2.4572847 25
6.0902066 48.665409 2.5214481 25
6.2251458 -3.8881125 3.0534806 29.200001
6.1543679 11.877344 3.1481445 30.12225
6.3445287 19.719593 2.964767 28.133751
6.2315598 20.166527 2.9967926 27.640123
6.1546774 21.374409 3.1924417 28.130001
6.0285196 37.557533 3.1791289 26
6.0698819 46.877918 2.8862681 25
6.0589895 50.258762 2.9539788 25
6.1714211 -16.066061 3.3630528 28.049999
6.1004243 -8.3542757 3.3385746 29.042
6.1232514 -6.9179716 3.3854682 29
6.1389747 -6.0036755 3.4199214 29
6.1547761 -3.8882728 3.2518377 28.6064
6.249362 21.198795 3.2714105 28.128
6.2938142 21.218147 3.5123682 28.145
6.326828 29.668667 3.5087984 27.129
6.119813 37.672848 3.2224472 26
6.0302615 41.036118 3.4969709 26
6.3878798 -16.078606 3.8732426 28.047001
6.2674103 -3.8017161 3.7941334 30.008499
6.0998974 -3.595408 3.7967913 30.007999
6.2089357 -3.1869321 3.6638439 29.01
6.3847308 -2.4464953 3.8125298 30.0065
6.2376056 21.221062 3.6091294 28.1465
6.2746644 33.582123 3.9723608 27.129499
6.054595 41.140442 3.6820252 26
6.0634899 -10.973646 4.0585957 30.0485
6.0345755 -6.9547834 4.1504545 30
6.0352445 -6.0386295 4.1866465 30
6.1853895 -3.8388672 4.2558117 30.011
6.2849078 29.334837 4.0262418 27.150499
6.3712411 30.381145 4.3287368 27.154499
6.1601028 32.605526 4.0211153 27.139999
6.3980236 33.546844 4.1237073 27.1395
6.3125906 33.845825 4.0147285 27.129999
6.032938 48.250061 4.1726446 26
6.2019558 50.403481 4.3749733 26
6.3911386 -16.058023 4.5626206 29
6.2150564 -3.8271184 4.5026994 30.014999
6.1069274 -3.475966 4.5069027 30.016001
6.0364265 -2.9783609 4.4911022 30.015249
6.150569 -2.4420984 4.4429002 30.0145
6.0138116 -2.3907363 4.6072645 30.0165
6.2710891 19.482767 4.7831268 30.130501
6.1883354 30.347418 4.6354156 28.137501
6.3152933 30.658012 4.4737139 27.164
6.3971357 31.44298 4.7933726 28.136999
6.0770202 31.632362 4.7714572 27.171
6.151938 32.219952 4.6427417 27.1635
6.1745296 32.886658 4.758667 27.167
6.0724244 38.055759 4.602138 27.138
6.2062802 19.508984 4.8049293 30.129499
6.1171188 30.476578 4.88866 28.143
6.3841438 36.611389 5.0094929 27.152
6.4216065 2.8431549 -1.2052057 16
6.666769 4.6650767 -1.2797672 16
6.4284401 4.8750162 -1.2981446 16
6.5755763 6.9172125 -1.3691083 17
6.6426253 18.242554 -1.5846077 22
6.6574988 -3.6995265 -0.91867429 19.116667
6.6667619 -3.3320522 -0.98665339 18
6.5454493 -2.9658749 -0.91768962 17.642857
6.6759229 -2.6489184 -0.96716642 18.200001
6.6288552 -2.1461473 -0.90921581 18
6.5963173 -1.802881 -1.065778 18.142857
6.5495105 -1.4294126 -1.0948163 18
6.615788 -0.94264156 -1.0998563 18.861111
6.7092805 -0.55333823 -1.0972497 19
6.718328 -0.25689667 -1.0628601 19.5
6.7177773 0.17632715 -1.0801816 19
6.6361294 0.59149849 -1.0360218 18
6.6458831 1.0168742 -1.021675 18
6.5638833 1.3934842 -1.0631554 17.5
6.5951109 1.8179113 -1.0313826 18.285715
6.5990305 2.1899621 -1.034567 18.833334
6.5941901 2.5695407 -1.0603303 18.333334
6.6867146 2.9874613 -0.9829216 20
6.5857716 3.3844538 -0.98518795 20
6.5650978 3.8757391 -0.9764359 20
6.6285949 4.2091336 -0.9502961 19
6.6226082 4.4798689 -0.95903677 18
6.5566621 4.9152966 -0.99861366 18.333334
6.7237554 5.4792876 -0.93890959 18.333334
6.614315 5.7907619 -0.96106887 19.5
6.5295973 6.2016239 -0.97779602 19.5
6.6172838 6.6095576 -0.93650508 19.5
6.5776386 7.0396194 -0.95084774 19.571428
6.6302948 7.2868462 -0.95469934 20
6.6035209 7.8351417 -0.92061728 20
6.5626335 8.1869631 -0.91911978 20.799999
6.6458974 8.4467735 -0.94557154 20
6.407443 9.0023527 -0.94528568 20
6.6110339 -3.7393591 -0.58453918 20.325203
6.597002 -3.4289176 -0.7726438 19
6.6575718 -2.9641569 -0.7875604 18
6.5120993 -2.722017 -0.79544401 19
6.6219382 8.1872101 -0.59625334 21.015152
6.7908425 11.758277 -0.73342013 22
6.7657123 13.530463 -0.79673266 22
6.4844227 16.027388 -0.54904109 23
6.5667539 18.215557 -0.74030232 23
6.6041756 -3.7413492 -0.22315687 21.948433
6.6151824 8.1589088 -0.17045356 22.73871
6.4610906 18.167091 -0.051760353 23
6.6167765 -3.7965393 0.22034 23.551958
6.5501394 8.2559347 0.080588698 23.125
6.6917653 8.4499063 0.38322294 24
6.4684324 9.4538622 0.21191421 24
6.5453949 11.677659 0.21759748 23.6
6.6333842 -3.8131917 0.58714736 25.26613
6.6620855 8.5044422 0.41299313 24
6.5838923 11.713484 0.5919261 24.444445
6.7124863 38.145756 0.7334469 24
6.6671062 -4.0054169 1.0690254 25
6.6251593 -3.8126404 1.0098064 27.074873
6.620573 38.32774 0.83527809 24
6.6200256 -4.124999 1.2762959 27.5165
6.6285987 -3.8185537 1.3874255 28.828564
6.5534215 62.121704 1.4237926 24
6.6239743 -4.0162783 1.7902451 26
6.6404471 -3.8682868 1.7772404 28.312069
6.7933555 13.077701 1.7172921 27.134501
6.7784915 29.768917 1.6531887 25
6.4282641 -8.5620251 2.2654412 29.063499
6.4658947 -4.1223273 2.0031786 27.038
6.6148343 -3.8542564 2.1910021 28.940416
6.4570432 38.52924 2.1411204 25
6.7545171 39.097019 2.1290922 25
6.5864406 -4.0264616 2.5197518 27
6.6184187 -3.8767972 2.547621 28.083687
6.6854434 -3.3898919 2.7654188 29.003166
6.701066 -15.879264 2.9273186 27.047001
6.6256084 -3.8801658 3.0672636 29
6.7205291 -3.3648367 2.9848096 29.008499
6.5570946 19.815102 3.0257463 28.127752
6.6294913 30.105696 2.8086426 26
6.4346733 48.203472 2.9601617 25
6.5627861 50.579525 3.0163643 25
6.7926559 -16.184261 3.3171468 28.050501
6.5593877 -4.0353398 3.2509811 28
6.4765291 -3.9068837 3.3865469 28.673002
6.7879825 19.589357 3.5590308 28.150499
6.5728469 37.005768 3.3117816 26
6.7447495 38.197079 3.2699637 26
6.6381826 38.708893 3.4205225 26
6.4907212 41.026749 3.5571082 26
6.6012397 -16.079231 3.7566359 28.26375
6.5685644 -3.9265168 3.7609153 30.009001
6.6039872 -3.4381444 3.6891201 29.013374
6.6243973 -2.389046 3.7870781 29.011499
6.4316516 32.663651 3.9024842 27.131001
6.69069 33.597511 3.9699135 27.128
6.6478953 37.809528 3.624537 26
6.4757366 30.13286 4.3847103 27.1625
6.7407708 30.854536 4.1759291 27.1495
6.7372785 31.751991 4.3719983 27.158501
6.6144786 33.818756 4.0931301 27.138
6.6451879 48.331821 4.1679411 26
6.6469216 -16.070999 4.5341997 29
6.7289667 -3.6005757 4.5349197 30.018499
6.6852536 -3.4236922 4.526185 30.019249
6.5892849 -3.1260881 4.5354719 30.01775
6.4990897 -2.7086627 4.5301628 30.017624
6.505456 29.397179 4.435358 28.129499
6.5131006 36.795303 4.4133077 27.136999
6.719296 39.06258 4.6289277 27.131001
6.7072244 39.215866 4.6522522 27.129
6.5258212 29.984957 4.9348636 28.144501
6.5162692 30.576694 4.8777437 28.142
6.6299028 31.431992 4.9562478 28.140499
7.0787239 -9.7627106 -2.2954304 22
7.0805221 4.241055 -1.2459267 16
6.9029021 4.4448538 -1.2630203 16
6.9989815 5.4854865 -1.269115 16
7.0008721 6.7215409 -1.3452529 17
7.0798049 7.2885385 -1.3675086 17
6.9200315 -4.0811915 -0.9349789 18
7.0106339 -3.7656307 -0.94984126 18.773335
7.0747318 -3.3096073 -1.0495528 18
6.9319854 -2.9769452 -0.8696909 17.5625
6.9775381 -2.6139507 -0.901456 18.15909
6.993319 -2.2602053 -1.0109544 18.333334
7.0987372 -1.8237125 -1.0952116 19
7.0100188 -1.3710264 -0.97211587 18
7.0862255 -1.0313491 -1.0840892 18.75
7.1840239 -0.56928432 -1.0616858 18.333334
7.0069857 -0.21482006 -1.0525305 19
6.9762597 0.14381725 -1.033219 19
7.1052809 0.63155383 -1.006016 18.5
7.080677 1.0849622 -0.9956519 18.5
7.0601616 1.3638341 -0.99203515 18.5
6.9563861 1.7524086 -1.0299033 18.25
6.8613396 2.2706654 -0.98753339 20
7.015152 3.8351474 -0.94371712 18.833334
6.9336519 4.2193727 -0.94497865 19.5
6.8181911 4.4398432 -0.95234746 19
7.1351781 4.896306 -0.97824723 21
6.9962034 5.3632503 -0.95389301 19.4
7.1505404 5.7044134 -0.97939193 18
6.9750662 6.1239691 -0.92418265 18.666666
6.9837127 6.5793481 -0.9523887 20.125
6.967669 6.9934649 -0.93786997 20.25
7.0420856 7.3790894 -0.92410851 19.200001
6.9975672 7.8033419 -0.91178006 20.285715
6.9888067 8.1656981 -0.93170959 20
6.9241157 8.6371746 -0.92984968 20
7.0309706 9.0170345 -0.89717245 21
7.1982794 9.71735 -0.9292863 21
6.9391618 13.041628 -0.95865291 22
7.1387348 13.381513 -0.83970851 22
6.996098 -3.7904422 -0.57301414 20.500546
7.0790567 -3.4241257 -0.75635546 18.75
7.0301862 -2.9965823 -0.77331847 18
7.0642653 -2.7357335 -0.78551763 20
7.0231586 8.181901 -0.55223602 21.204546
7.1358624 11.590722 -0.6338414 22
6.9939275 13.527226 -0.75662518 22
6.9867048 15.937998 -0.7184087 23
7.0260282 16.175608 -0.56091362 23
6.9845314 -3.7945709 -0.21387641 21.984396
6.9645538 8.1512089 -0.19430989 22.579546
7.12322 11.418702 -0.18943807 23
6.8099308 11.743541 -0.38317055 23
6.9096713 18.634523 -0.035838071 23
7.1179571 29.879543 -0.32147035 23
6.9751511 -3.8108177 0.20035629 23.384525
7.0068455 8.3052063 0.1807566 23.333334
7.0572276 8.4249754 0.32361579 23.75
6.9616084 9.1829882 0.3081392 24
6.9945087 9.3180828 0.31586501 24
6.9331002 11.658267 0.24697994 23.833334
6.9675937 -3.8232708 0.59245092 25.207893
7.0134454 8.5025625 0.41988784 24
7.0914869 8.838233 0.46866536 24
7.0123191 11.706303 0.6173445 24.5
7.0624747 -15.750062 1.1113609 25
6.9806495 -3.8406866 1.023627 27.191952
7.1148181 38.048161 0.81143969 24
7.194283 -4.3509488 1.5386125 30.0355
6.9951963 -3.8498025 1.3840568 28.708429
7.0647678 13.036012 1.3307432 26
6.8690057 62.176056 1.442749 24
6.9812002 -4.1270099 1.7059432 30.697666
7.0025549 -3.8923159 1.7568579 28.731886
7.0506921 13.018472 1.7047251 27.133875
7.0018735 29.600439 1.6902198 25
6.9725738 -15.805305 2.0098219 26
7.040091 -3.8874679 2.1931486 29.145433
7.1110029 12.747949 2.1381354 27.1465
7.0667658 13.048133 2.2607644 27.883249
6.9783397 13.206541 2.3222191 28.130749
7.0670791 38.183479 2.3743391 25
7.0284419 -3.8850346 2.5870557 28.558355
7.0593972 -3.2655444 2.6155045 27.51075
7.1664548 12.26903 2.5420079 29.13525
7.1541266 12.763405 2.6597209 29.127251
6.9496574 12.844674 2.5776682 28.503532
6.9568949 -15.843979 2.9689174 27.014666
7.032968 -3.8968349 3.0972209 28.732319
7.1507807 -3.3204041 2.8526924 28.009501
7.1437607 18.790409 3.0118892 28.127001
6.9074345 37.133923 3.1888137 26
7.0177112 -3.8881404 3.3943717 29.509876
6.9775562 37.158173 3.3405864 26
6.9254642 37.206871 3.2016916 26
6.9473691 37.850731 3.2934821 26
6.9420166 38.048569 3.3815324 26
7.0323329 -16.068071 3.7201514 28.02375
7.0046263 -3.8288918 3.6044705 29.011499
7.1942649 -3.2050025 3.7544401 30.008499
7.0840492 -2.8839099 3.7376187 30.00775
7.0759978 -2.4715099 3.8131208 30.0075
7.1306229 19.618498 3.6477668 28.126499
7.002593 29.351709 3.6505835 27.140499
7.0655303 29.606335 3.6757631 27.1285
7.0589437 -3.8824236 4.3559041 30.015499
7.1399407 19.810442 4.3582134 29.126499
6.9967265 20.592241 4.2733002 27.006001
6.8479609 31.781788 4.2738914 27.149
6.8012466 33.752846 4.0051494 27.1285
7.0198574 -3.8584864 4.4930191 30.019501
7.1632071 -3.1178131 4.5107188 30.027874
7.0463433 -2.564075 4.5039978 30.02075
6.8766427 20.870152 4.4966536 29.127501
7.1039305 31.723684 4.5525508 27.162251
6.9436159 31.481871 5.1297264 28.143499
7.0968981 31.823191 4.951386 28.139
7.3909922 3.841619 -1.2169129 16
7.4601507 5.1784239 -1.2377634 16
7.4238987 7.178791 -1.3509533 17
7.4133778 -3.7817256 -0.95102429 18.648149
7.4030604 -3.4385629 -1.0347009 19.666666
7.3578539 -2.9859529 -0.94121748 18.5
7.3984051 -2.5911627 -0.93087995 18
7.3517385 -2.1522825 -1.0175792 17.5
7.399786 -1.7587591 -0.94090319 17.5
7.4066653 -1.3989375 -1.0374414 17.666666
7.4427071 -1.0623211 -1.0223118 18
7.5689073 -0.67343068 -1.0232687 18.333334
7.3066545 -0.13035564 -1.0772493 18
7.3257113 0.20096333 -1.0223082 17
7.5643716 1.7904334 -0.96205074 19
7.4890165 2.2726667 -0.95047456 19.333334
7.4412093 2.5094094 -0.9453733 19.5
7.4802313 2.9841311 -0.9406361 18.25
7.2811966 3.3549817 -0.94019645 18.75
7.4707155 3.7847519 -0.96472192 20.333334
7.4137354 4.2482395 -0.97648889 21
7.2318773 4.6954727 -0.97794044 21
7.4002104 5.000762 -0.92517191 18.933332
7.395925 5.5269427 -0.96827847 20
7.4383121 5.840682 -0.93643683 19.142857
7.3928876 6.2488699 -0.91832376 20.142857
7.3783898 6.6424589 -0.9061721 19.5
7.50038 6.9494953 -0.93845093 19
7.3845963 7.422513 -0.89908481 19.857143
7.3582621 7.9038692 -0.90244186 20
7.4584394 8.2078295 -0.89563304 20.291668
7.4222426 8.5555725 -0.91191423 20.5
7.39852 8.9402857 -0.92076623 21.666666
7.2987504 9.3216829 -0.94965374 21
7.4550023 9.8765841 -0.9109928 21
7.3902006 -4.0078497 -0.71416962 19
7.3924375 -3.8072579 -0.58663106 20.501482
7.3549485 -3.4479151 -0.74521643 18.166666
7.4263659 -2.9946029 -0.76785946 18
7.4689775 -2.7297854 -0.78781885 18
7.3675146 -2.3458531 -0.79127973 18
7.4107509 8.204627 -0.56344211 21.155172
7.4714785 11.737076 -0.64600033 22
7.368247 13.360576 -0.73582697 22
7.4827905 13.748411 -0.7501573 22
7.4581189 15.957522 -0.75475597 23
7.2331343 16.04636 -0.46047413 23
7.3981924 -3.8300617 -0.22679219 21.996582
7.3883805 8.1643286 -0.21761681 22.450758
7.3926811 11.846884 -0.33069915 23
7.4160514 18.237558 -0.061597634 23
7.3846917 -4.0253701 0.37112236 24
7.3918405 -3.8378243 0.2101292 23.381943
7.3790388 8.3153524 0.19561575 23.375
7.4005928 8.4226141 0.28166309 23.555555
7.3417058 11.64326 0.27112353 24
7.3430076 17.829363 0.010851691 23
7.2548208 -4.0564036 0.58830762 25
7.3886542 -3.8553305 0.58677757 25.022135
7.4007168 8.4982357 0.42472252 24
7.4184284 8.8668938 0.47226653 24
7.4800634 11.69394 0.64301616 24.5625
7.2051916 30.685923 0.67325246 24
7.400794 32.669678 0.74149287 24
7.5278344 32.823174 0.76114476 24
7.3667607 38.219444 0.74634039 24
7.409286 -15.761408 1.112206 25
7.4080329 -3.8730516 1.0289998 26.97879
7.323668 -4.1498752 1.4291778 29.532749
7.4071889 -3.8772197 1.3620298 28.567411
7.3300238 13.182714 1.3130174 26
7.4447408 -4.0532446 1.7579781 26
7.4048839 -3.8987167 1.7473119 28.94611
7.4061847 12.711473 1.6706942 27.130749
7.2984343 29.6936 1.6567583 25
7.3226533 -15.815111 2.0005789 26
7.3898783 -3.9057946 2.204035 29.073376
7.3749266 12.653002 2.3244722 28.135147
7.3569975 12.88691 2.1826074 27.824024
7.4646368 -16.124876 2.7651651 28.0555
7.4344091 -15.986689 2.7364674 27
7.5373521 -4.0280399 2.5211282 28
7.4306941 -3.9000177 2.5510538 28.834915
7.58255 -3.3831534 2.4803047 27
7.40416 12.313918 2.5279377 28.857616
7.4301677 12.488317 2.5610962 28.776106
7.302187 12.937835 2.4589126 28.124001
7.3049541 38.253399 2.4062974 25
7.5331597 38.884293 2.4187763 25
7.3459368 39.25602 2.4555151 25
7.3869934 -15.864014 2.8866627 27.02375
7.4203191 -4.0665407 3.1572828 28
7.3851509 -3.9035239 3.042789 29.142857
7.2373481 -3.3663287 2.917383 29.009001
7.5707612 13.383114 3.1034756 30.1255
7.2482109 18.229017 3.1947396 27.161501
7.499208 29.738066 3.163743 26
7.3761158 -16.022121 3.5907197 28
7.3956223 -15.952011 3.4820187 29.054001
7.5775552 -3.9299679 3.3064761 30.0105
7.5109105 -3.371227 3.3814106 30.01075
7.5681806 18.079191 3.4689786 28.12525
7.3248205 19.496675 3.5112112 28.15
7.2159753 37.909889 3.296824 26
7.4358749 38.052574 3.2755029 26
7.2017856 38.513119 3.3950448 26
7.3947101 -16.214703 3.7995923 28.046249
7.2999444 -3.3234432 3.7451622 30.009001
7.5699649 -2.7655873 3.6717954 29.012501
7.4617233 19.737839 3.6841226 28.125999
7.5427256 20.309032 3.8521423 28.125999
7.2548885 20.617123 3.8978255 28.126499
7.5327382 21.392374 3.6042278 28.126499
7.3807282 29.407995 3.6554897 27.135
7.593215 18.229794 4.0220923 29.1255
7.2056794 19.763567 4.2564836 29.127001
7.5431204 21.224098 4.1058826 29.1285
7.2900014 31.998981 4.3866792 27.158001
7.2938695 -16.073717 4.4603882 29
7.4781456 -3.7109408 4.4861622 30.02375
7.4969802 -3.4092042 4.4873338 30.0245
7.4143772 -2.9165301 4.4875851 30.02375
7.2274671 -2.6607077 4.5284529 30.033501
7.5826368 -2.3945043 4.4442587 30.023001
7.5109138 19.020313 4.7015204 30.127501
7.4526782 29.663221 4.4915686 28.1285
7.3615446 30.876219 4.6616321 27.1705
7.4035974 31.94294 4.6334052 27.1665
7.5173221 32.214218 4.5964727 27.161751
7.3876214 38.934868 4.6241202 27.128
7.2672191 31.721848 5.0271945 28.1415
7.2802501 37.545853 4.9907112 27.156
7.3355026 40.554646 4.8284907 27.128
7.717802 -13.327774 -1.3791742 22
7.9434342 4.773088 -1.2022057 16
7.7832336 4.9265699 -1.2163146 16
7.7466917 7.0433874 -1.3316821 17
7.8841028 7.4026141 -1.3277804 17
7.7839656 -3.7778563 -0.91338998 19.151514
7.8830028 -3.5135896 -1.0444322 19.5
7.7663565 -2.9869633 -1.0455056 18.6
7.7478557 -2.5548306 -1.0099041 18
7.9468703 -2.2181401 -0.95821995 18.200001
7.7381659 -1.863879 -0.91495401 18
7.7960162 -1.3451822 -0.99802852 18.200001
7.804306 -0.9934026 -1.0397028 17.75
7.7746005 -0.61307842 -1.0251696 18.75
7.7880406 -0.23156048 -1.0155391 18.714285
7.8410573 0.15475962 -0.99832737 19.25
7.787312 0.66043043 -0.98152924 18.799999
7.7971325 1.0289048 -0.97223067 18.75
7.7642236 1.3841228 -0.96517915 18.333334
7.7987514 1.7419915 -0.95526606 17.5
7.6857176 2.1575127 -0.94887298 18.5
7.8502316 2.627243 -0.9698441 20
7.8135877 2.9308586 -1.060829 17.75
7.693552 3.376997 -1.0473374 19.333334
7.9577889 3.877424 -0.90944237 20
7.8663568 4.2504697 -0.92134678 19.833334
7.7237015 4.633945 -0.92533386 19.083334
7.7840276 4.9923325 -0.94297254 19.75
7.8299923 5.4599257 -0.91365135 19.200001
7.7661085 5.8243675 -0.89411616 20
7.7683334 6.1725354 -0.92843932 18.6
7.8793635 6.5518851 -0.88896441 19.666666
7.7080035 7.1191015 -0.90654159 20
7.8410978 7.3761129 -0.9150598 19.428572
7.818202 7.8217854 -0.863886 20
7.8240328 8.1524448 -0.86618245 20.875
7.8142881 8.5736275 -0.91391158 21
7.9196134 9.0390377 -0.87843329 20
7.7372208 9.5494747 -0.89709574 20.5
7.8599162 9.7464314 -0.88089651 21
7.7912951 10.601957 -0.84885514 21
7.8346725 10.942316 -0.82848102 21
7.7941852 -3.8122561 -0.58735496 20.394815
7.7881217 -3.355685 -0.73082209 18.428572
7.7812443 -2.9554574 -0.76197326 17.799999
7.8096261 -2.5201759 -0.7756719 18.6
7.8156881 8.1691122 -0.59524572 21.069893
7.8212538 9.8644428 -0.77517664 21
7.8103194 11.386593 -0.54056889 22
7.8979468 13.389914 -0.70426828 22
7.6626091 16.028997 -0.50420243 23
7.6493115 18.389242 -0.7183159 23
7.8073173 -3.8250577 -0.22965603 21.931864
7.6243696 7.9448643 -0.1520571 23
7.7548819 8.1834211 -0.22128187 22.315971
7.75348 8.421711 -0.25908345 22
7.7824974 18.227301 -0.015261143 23
7.9240599 -4.0026426 0.39826992 24
7.7959108 -3.8453655 0.23104239 23.409357
7.799334 8.3316956 0.1916254 23.333334
7.8183665 8.4221544 0.30995554 23.727272
7.8863635 8.9535608 0.18335912 23
7.6310358 11.63385 0.25925413 24
7.8873878 14.076414 0.36569217 24
7.853045 18.419184 0.025928736 23
7.9192886 -4.0775752 0.6233989 25
7.7930574 -3.8585119 0.60920417 25.132421
7.7611752 8.2222652 0.57308072 24
7.8237576 8.5117502 0.41601628 24
7.8501825 9.0483723 0.59796584 24.666666
7.6642356 9.2450161 0.48559207 24
7.7120633 11.599002 0.72181773 25
7.8771429 11.73865 0.61974013 24.333334
7.8546185 32.711208 0.74933952 24
7.6670094 37.563736 0.78722531 24
7.8587451 -15.776459 1.1134377 25
7.6363487 -4.0247946 1.0674454 26.517124
7.7953959 -3.8627467 1.005646 26.817276
7.7317004 13.785716 0.88584274 25
7.7818499 40.011944 0.89997751 24
7.7948532 -3.8757603 1.3771881 28.761148
7.978219 13.49878 1.4025058 26
7.7340226 13.799555 1.4501761 26
7.7805696 -15.825224 1.9886359 26
7.9234157 -4.1777368 1.7397118 30.53125
7.783124 -3.9154463 1.7851423 28.935862
7.9950757 13.518723 1.7614542 27
7.8671818 13.692305 1.6884772 27.08532
7.8008876 -3.9012909 2.1858571 28.878223
7.7869601 12.517866 2.3257768 28.122499
7.71663 12.873953 2.0954642 28.130165
7.8634615 13.37101 2.3749144 28.018858
7.8283324 -3.8857665 2.5077257 29.084167
7.7544832 -3.3786798 2.6344359 27.754751
7.616766 12.334044 2.5724902 28.12075
7.7957091 12.52868 2.5936122 29.129915
7.8342228 13.116644 2.7482255 28.855417
7.8628163 13.31991 2.6150558 28.520914
7.7306085 38.978321 2.4517906 25
7.7556391 -15.881532 3.0497653 27.0445
7.96629 -4.061933 3.0976322 28
7.7769752 -3.9027269 2.9689844 29.200001
7.6606326 -3.3278704 2.9242454 28.6765
7.7487483 12.645009 2.9866343 29.928654
7.860414 12.984788 2.9793022 29.75654
7.8567109 13.207279 2.8092346 29
7.6777444 -15.943184 3.3798282 29.0525
7.8155808 -3.8386207 3.4360592 29.344332
7.7245421 -3.4092855 3.5308154 29.678335
7.8067002 18.006866 3.5126572 28.125
7.9271507 20.661945 3.4927554 28.1465
7.9227543 21.16618 3.3913076 28.127001
7.999548 21.318243 3.4959266 28.1255
7.844183 37.937309 3.3028767 26
7.628705 38.109241 3.3801215 26
7.8136888 38.639854 3.3357496 26
7.911458 -16.265165 3.9074364 30.052999
7.9278235 -15.864295 3.9234514 28
7.8817177 -3.3038366 3.696734 29.2167
7.7215939 -3.0284555 3.6676271 29.013
7.7514076 -2.5336375 3.7569461 29.6765
7.9605088 13.127435 3.8544292 30.120001
7.7014513 13.489 3.8052995 30.123501
7.665422 20.194462 3.973088 28.143999
7.8813791 18.199993 4.0311747 29.125
7.6313601 18.529381 4.2085462 29.1255
7.7463527 18.823507 4.3375669 30.125999
7.9922786 20.72864 4.0225701 28.1255
7.8697982 -16.13479 4.6178856 29
7.8404632 -3.5492911 4.5253859 30.032
7.6165204 -2.734822 4.520752 30.028
7.8646326 18.618088 4.5164323 28.57
7.9741812 18.875208 4.4585071 30.125
7.6138787 20.941666 4.6366897 29.125999
7.7003741 51.329659 4.4357066 26
7.9382367 21.458569 4.9366722 29.125999
7.7682505 39.902016 4.8312411 27.127501
8.3915148 -11.719766 -1.9190699 22
8.2812309 -0.016906232 -1.203706 20
8.335309 5.4964046 -1.2194234 16
8.0020552 5.7175522 -1.244809 16
8.1066084 6.8652086 -1.3091371 17
8.2025881 7.4106226 -1.2857339 17
8.2221661 -3.779973 -0.93342072 18.933332
8.2296762 -3.2515643 -1.0194221 20
8.206315 -2.9032865 -0.99960077 19.25
8.2632704 -2.5907707 -1.0207591 18.166668
8.2126846 -2.1748595 -0.98525584 18.857143
8.2105875 -1.790229 -1.0337943 18.6
8.1958323 -1.4327499 -0.9445042 18.4
8.1984015 -1.0449182 -1.0140282 18.6
8.163455 -0.65103465 -1.0322275 18
8.3268433 -0.12346419 -1.0127656 19
8.3070116 0.17094702 -1.0234511 21
8.1868305 0.56029516 -1.0084069 20
8.2359047 1.0662262 -1.0062433 21
8.2078304 1.3526139 -1.0025892 21
8.1461678 1.7628173 -0.99695599 21
8.1805859 2.1914616 -1.0477177 18.5
8.1986885 2.6025393 -0.99983084 19.333334
8.261837 3.0028887 -0.91729212 20.333334
8.1203432 3.4148304 -0.92412043 20.666666
8.1869936 3.802897 -0.91839349 19.333332
8.2067041 4.2559371 -0.99238384 17.733334
8.2569723 4.5234823 -1.032748 18.5
8.2251844 4.9961514 -0.88892537 20
8.1420612 5.3756089 -0.90700799 18.866667
8.1751738 5.7068434 -0.95320088 18.666666
8.2605686 6.1821308 -0.8833884 19.571428
8.1587543 6.5735765 -0.88062173 19.666666
8.3159218 7.1393991 -0.84548265 20
8.2028971 7.3989544 -0.87988025 19.200001
8.2566462 7.8117156 -0.88692522 20.714285
8.1509657 8.2102222 -0.85390151 20.833334
8.1943359 8.6370592 -0.90242958 20
8.1647234 9.1148481 -0.8752417 21
8.1992598 9.4018955 -0.86039656 20.333334
8.1339197 9.7174587 -0.85109395 20.4
8.1974468 10.144529 -0.87324286 21
8.0277443 10.764808 -0.84057683 21
8.2509089 10.966249 -0.82069755 21
8.1086845 11.411515 -0.82556778 22
8.3273029 13.133286 -0.82791674 22
8.2091084 -3.8240314 -0.57009858 20.1978
8.1999683 -3.3218229 -0.71205485 18.916666
8.2148905 -2.9444094 -0.75146896 17.888889
8.2295732 -2.6401875 -0.7658633 18
8.2932692 -2.206399 -0.7732209 19.200001
8.1884394 8.2033815 -0.53335226 21.0625
8.120719 9.7720881 -0.73412675 21
8.2800846 11.055793 -0.78413951 21
8.2071724 11.399713 -0.71636289 21.5
8.0152311 11.702248 -0.52420616 22
8.3591099 13.05619 -0.63511676 22
8.0095615 13.413999 -0.68565923 22
8.1806965 16.096863 -0.55829012 23
8.1066198 18.024599 -0.60739666 23
8.1872797 -3.8330302 -0.21280579 22.032269
8.1941319 8.2017946 -0.21690598 22.344736
8.1654606 8.4655323 -0.23067379 22.5
8.2314386 11.469904 -0.043874022 23
8.3334942 20.5315 -0.020241784 23
8.2675343 30.575064 -0.080252774 23
8.203002 -3.8501685 0.21989186 23.369793
8.1769552 8.3148317 0.16731583 23.411764
8.2380953 8.5474186 0.29853672 23.625
8.3675203 9.0002317 0.19320573 23
8.3469658 9.2863894 0.19778472 23
8.2361336 18.251499 0.020075927 23
8.0359478 -4.0340567 0.40099159 24
8.1919127 -3.8732352 0.58916968 24.838163
8.1259928 8.6095285 0.4152838 24
8.2301807 9.0586586 0.43297249 24
8.0487709 9.5804663 0.50009716 24
8.2139263 11.703387 0.63886034 24.5
8.090167 12.41759 0.77176893 25
8.1962709 -4.0164032 1.0616984 25
8.206748 -3.8750861 1.0140265 26.593851
8.0363722 12.126334 1.1953396 26
8.11238 13.797637 0.90448397 25
8.2931843 -4.1136379 1.4422874 29.366333
8.202548 -3.8764033 1.3947259 28.467148
8.0681276 12.241703 1.2775023 26
8.35221 12.436102 1.2946775 26
8.0622301 13.507992 1.3988545 26
8.087492 13.885436 1.3806583 26
8.0352869 62.123524 1.4876311 24
8.0518541 -15.796994 1.6804831 26
8.0133648 -4.0459733 1.735568 26
8.1901722 -3.911407 1.7698053 28.691345
8.1537676 12.170283 1.8552452 27.12595
8.2264891 12.775717 1.8327949 27.1215
8.2188129 12.876195 1.8672299 27.119917
8.0820694 13.484735 1.7850503 27.02025
8.1636438 13.74508 1.7749603 27.084333
8.2862949 -15.821452 2.1455746 26
8.2319717 -4.0001998 2.31283 31.02475
8.1987009 -3.9119425 2.2016089 28.82353
8.2140484 11.951769 2.1574137 28.122168
8.1651278 12.110249 2.1485517 27.946022
8.2910709 12.615518 2.0660944 28.131001
8.2285652 13.410714 2.1710176 27.434708
8.2711067 13.885643 2.0638404 27.12775
8.0455027 39.349205 2.1152048 25
8.0977383 39.964294 2.1741703 25
8.080162 -15.855659 2.5329084 27.051001
8.0620375 -4.0441289 2.4102232 27
8.1985769 -3.8957915 2.5899336 29.087435
8.2422209 -3.444607 2.7132874 28.340332
8.2485361 12.290568 2.634937 29.128
8.2394829 12.652099 2.63011 28.6975
8.2315178 12.987801 2.6253321 28.725698
8.1143341 13.299825 2.5389335 28.274601
8.1644363 -15.860705 2.9662018 27.016001
8.2097158 -3.9085929 2.9806437 28.891167
8.1341362 -3.3756769 2.8797939 29.00975
8.2136116 -2.7097952 3.1647842 28.033501
8.2982035 12.272827 3.0561454 29.5289
8.1750021 12.604213 2.9435499 29.570219
8.1544991 13.002405 3.0888667 29.723049
8.0501118 13.297591 2.9979954 29.56575
8.3622074 -16.043938 3.5101686 28
8.184021 -3.8984263 3.3160167 29.6091
8.1577654 -3.3313971 3.5053105 30.009501
8.3158264 11.034874 3.3282082 28.176001
8.1944885 12.245414 3.3333225 30.120251
8.2612 12.682892 3.5611856 30.120501
8.1610489 12.974923 3.2067711 29.62175
8.1727066 37.848541 3.3435595 26
8.376687 39.832249 3.599189 26
8.1978607 -16.111 3.8295507 28.684999
8.1701918 -3.3717422 3.7354305 29.269749
8.3054304 12.727337 3.7687902 30.119165
8.2236691 13.041533 3.8548737 30.119249
8.2671175 13.459045 3.6584918 30.120333
8.2522392 20.211689 3.810703 28.125
8.1879873 -16.087589 4.3611436 29
8.3405752 -5.3449507 4.0636063 30.041
8.221323 -3.8695898 4.3029971 30.021002
8.2580738 10.075391 4.2351789 28.019501
8.3963947 10.508063 4.1882062 28.02
8.3217535 13.577367 4.2132049 30.153
8.338295 18.284906 4.5342221 30.124001
8.2917929 18.650028 4.5122037 30.1245
8.3611755 37.724167 4.584415 27.127001
8.1122503 39.816376 4.7479067 27.127251
8.2775431 11.526916 5.1106071 29.02
8.291707 18.531385 5.16012 30.1245
8.4597197 -11.310966 -1.8867655 22
8.508872 5.3755894 -1.2074863 16
8.6318645 7.1992092 -1.2903591 17
8.5031509 7.3427982 -1.2688504 17
8.5542421 -3.8095274 -0.88796246 18.833334
8.577734 -3.4806736 -0.999708 18.5
8.5392532 -2.9595501 -1.0006759 19
8.5543671 -2.6190689 -1.0402184 20
8.6023951 -2.1832962 -1.0117234 19
8.6117277 -1.7705016 -0.91022861 18.153847
8.5882072 -1.4226781 -0.97239256 17.625
8.7052326 -1.0521628 -1.0061866 18.4
8.7451229 -0.59449363 -0.98961222 19.166666
8.7215967 -0.24502654 -0.97473276 19.5
8.6013165 0.18876635 -0.974145 19.333334
8.5991116 0.56510001 -0.96433216 19.75
8.6101198 0.96455008 -0.95337594 18.666666
8.5928926 1.4261322 -0.94463003 19.333334
8.5658731 1.7952724 -0.93652546 19.285715
8.6122684 2.2129991 -0.92133826 19.5
8.4908104 2.6600006 -0.91189241 19.333334
8.7344122 3.0023634 -0.89954025 18
8.5821333 3.4210396 -0.89504451 18.541666
8.6439877 3.7734494 -0.96311712 19.333334
8.5114355 4.103982 -1.0141003 18.5
8.7826929 4.6864305 -0.88514328 18
8.6392155 4.9378357 -0.88245565 19.560001
8.7452726 5.3190298 -0.99943453 18.333334
8.5964441 5.8644762 -0.87334555 19.5
8.5513601 6.1980662 -0.8821795 19.25
8.6453476 6.5705647 -0.85178041 19
8.6229601 6.96099 -0.86577451 19.4
8.5383339 7.4676228 -0.88608479 20.4
8.6317806 7.7584004 -0.84411967 20.200001
8.6095142 8.2025852 -0.86695248 20
8.6959295 8.6687012 -0.84022582 21
8.603817 8.9777737 -0.86588603 20
8.6223392 9.3699684 -0.84936935 20.333334
8.5701885 9.6783724 -0.83982795 20.25
8.556694 10.173139 -0.85947186 21
8.5590496 10.495156 -0.83827317 21
